ncols         570
nrows         29
xllcorner     81.561
yllcorner     20.050253
cellsize      0.041667
NODATA_value  -9999
274.56 289.96 287.6 280.12 292.28 292.64 289 277.36 277 269.92 267.48 253.76 275.04 281.44 287.36 312.92 339.12 330.28 336.04 338.72 318.56 312.68 297.56 290.2 305.4 283.56 285.2 289.44 283.64 277.48 260.16 248.72 237.08 237.96 233.24 243.12 287.56 347.04 322.48 340.36 270.92 222.4 215.8 208.44 208.04 200.32 193.16 186.2 177.6 172.2 155.8 161.04 148.32 152.24 143.88 138.72 135.68 188.76 287.28 198.84 219.88 221.64 264.44 334.36 347.68 359.72 299.16 347.44 357.68 304.24 233.24 198.04 173.96 171.36 162.8 146.24 153.24 184.4 202.44 191.28 144.64 116.64 111.16 145.28 145.56 202.44 150 116.76 225.64 127.84 233.6 198.08 170.16 161.48 253.4 200.44 141.08 275.92 633.64 878.68 494.08 414.32 298.44 247.32 235.48 229.36 154.08 97.84 72.32 40.84 37.56 44.84 245.2 99.72 33.8 32.28 21.4 11.36 8.2 8.88 7.2 5 3 3 3 3 2.76 0.36 0 0 0 0 0 0 0 0 0 0 0 0 0 0 0 0 0 0 0 0 0 0 0 0 0 0 0 0 0 0 0 0 0 0 0 0 0 0 0 0 0 0 0 0 0 0 0 0 0 0 0 0 0 0 0 0 0 0 0 0 0 0 0 0 0 0 0 0 0 0 0 0 0 0 0 0 0 0 0 0 0 0 0 0 0 0 0 0 0 0 0 0 0 0 0 0 0 0 0 0 0 0 0 0 0 0 0 0 0 0 0 0 0 0 0 0 0 0 0 0 0 0 0 1.44 42.44 22.68 13.92 46.2 127.52 11.04 79.8 102.96 34.84 287.24 262.64 83.96 216 260.52 328.72 496.04 330.08 120.88 230.68 171.08 73.92 241.12 281.12 221.16 103.6 255.88 344.2 214.4 271.28 332.08 398.6 382.72 924.24 589.08 692.6 706.36 821.4 888.6 1311.04 1724.16 1443.44 1300.56 1991.08 2168.96 2675.84 2322.8 1912.28 1350.32 1103.44 694.92 469.48 394.88 367.16 316.56 309.92 259.8 270.2 318.48 376.76 330.12 261.48 193.36 126.72 126 211.4 139.16 66.64 42.04 42.4 37.36 46.6 78.64 113.36 176.68 219.4 241.2 224.68 194.76 160.56 130.2 121.2 150.76 187.44 198.4 228.04 245.2 217.6 190.4 172.2 173.48 151.16 132.56 119.32 109.4 109.28 115.48 102.72 91.92 169.56 416.24 338.84 331.96 360.04 1008.6 1249.04 1440.36 1395.36 1354.64 1073.24 1367.12 1576.88 1300.04 1035.64 977.16 960.44 929.2 970.44 994.56 1064.04 888.16 831.24 807.6 852.04 887.68 947.96 1033.2 1365.16 1286 1325.52 1384.44 1314.88 1328.16 1190.2 1042.68 991.2 930.8 969.56 962.92 999.24 1038.16 1035.36 1033.72 1021.36 958.2 901.28 917.44 946.36 956.24 963.04 1015.76 1171.16 779.68 620.28 559.64 708.24 828.76 885.24 894.72 659.8 388.2 1085.64 615.88 870.12 1218.96 1108.84 1283.28 1339.68 724.68 824.36 1250.28 1225.96 1388.96 1442.44 962.64 874.52 1015.36 1455.92 1843.04 1477.88 1310.4 1046.8 878.84 801.36 941.52 1192.12 1454.4 1723.76 1533.92 1273.52 892.6 824.52 942.92 1005.68 1050.28 1240.8 1472.88 1635.44 1090.84 959.12 891.24 657.92 629.84 1041.68 1440.8 1282.48 925.12 843.12 604.2 1017.24 989.92 1192.04 922.76 992.84 1190 1194.68 1190.76 1181.84 821.92 1012.6 1223.44 907.12 995.96 1008.04 1198.36 1203.32 1098.44 930.2 985.68 1238.6 1376.04 1180.04 1036.76 985.76 1175.12 1381.04 1181.32 948.48 868.44 952.12 1268.2 948.32 893.96 858.04 906.72 846.2 896.24 725.36 981.92 884.44 556.84 666.96 1134.08 1010.04 923.44 824.84 767.96 893.32 556.76 540.2 703.64 958.28 1068.04 896.52 570.6 819.76 1087.84 898.12 917.92 743.16 878.4 624.72 586 664.96 784.08 497.6 858.48 839.28 739.48 767.32 878 812.76 1326.52 1122.04 918.36 939.56 846.52 734.88 635.68 580.76 699.92 846.04 686.68 539.76 317.56 352.16 468.08 492.68 639.8 597.48 788.56 735.92 332.16 318.16 654.6 494.92 390.6 431.2 325.92 198.56 148.8 208.68 210.92 241.6 105.28 69.04 62.36 50.68 28.28
276 274.48 285.72 291.44 299.88 293.72 280.64 276.44 273.84 267.16 260.12 280.04 286.48 292.96 298.48 295.56 300.08 310 325.08 332.16 328.36 314.8 313.72 313.32 316.64 295.08 294.8 307.88 297 288.4 281 260.68 246.24 245.2 238.84 238 235.92 328.2 318.48 392.24 265.12 213.2 207.36 194.08 201.44 207.08 192.04 190.32 180.64 163.32 153.36 148.52 140.32 144.64 159.16 135.44 141.88 284.88 258.32 224.52 211 203.64 218.48 314.48 289.88 315.36 258.92 305.04 324.8 199.48 245.96 346.44 315.52 245.36 211.36 197.2 177.24 149.12 131.76 134.36 175.56 207.28 175.4 181.12 112.12 122.16 90.04 91.2 122.44 138.2 128.84 132.32 165.12 180 262.52 160.08 144.64 142.92 242.24 581.76 699.64 397.88 280.28 238.28 211.88 170.8 83.32 52.76 45.48 38.44 32.56 32.04 72.92 32.84 29.12 26.84 18.96 13.44 10.04 10.88 6.8 3.32 3 3 3 3 1.32 0 0 0 0 0 0 0 0 0 0 0 0 0 0 0 0 0 0 0 0 0 0 0 0 0 0 0 0 0 0 0 0 0 0 0 0 0 0 0 0 0 0 0 0 0 0 0 0 0 0 0 0 0 0 0 0 0 0 0 0 0 0 0 0 0 0 0 0 0 0 0 0 0 0 0 0 0 0 0 0 0 0 0 0 0 0 0 0 0 0 0 0 0 0 0 0 0 0 0 0 0 0 0 0 0 0 0 0 0 0 0 0 0 0 0 0 0 0 0 0 0 0 0 0 2.08 61 47.6 26.84 17.16 80.08 63.84 72.56 130.04 43.44 75.48 352.04 109.04 124.28 285.8 183.04 425.64 580.16 359.2 166.76 204.12 44.04 71.04 346.44 189.4 156.6 281.68 296.84 243.6 293.52 490.12 375.84 287.48 589.64 504.96 922.92 712.56 1193.44 1232.76 1032.48 1617.48 1346.84 1170.4 1591.36 1816.36 2434.68 1923.16 1777.16 1574.32 1068.84 657.28 506.08 476.56 582.76 338 347.92 284.76 320.36 374.52 410.24 357.16 280.44 195.44 126.64 104.16 159.4 133.44 39.88 42.76 54.88 70.92 113.92 141.36 166.6 233.52 294.08 309.68 273.28 224.16 177.08 153.92 131.4 145.6 174.08 208.08 231.92 250.56 231.72 200.32 197.8 200.88 170.08 132.44 123.56 115.16 114.32 120.44 109.48 105.64 151.68 539.88 515.32 261.96 261.08 1172.56 1347.08 1289.84 1308.68 1298.08 1281.4 1670.36 1556.48 1158.28 1044 1022.2 956.24 1079.36 1116.48 1046.08 1139.28 1016.8 840.4 815.8 824.36 899.36 1006.16 1037.8 1233.08 1241 1423.4 1628.28 1380.08 1304.48 1328.72 1173.6 1014.8 946.8 946.68 986.36 1004.04 1008.16 1010.32 1016.72 917.32 900.8 899.2 905.92 917 942.8 1003.32 1172.92 1112.16 734.16 596.04 500.16 646.64 737.92 820.6 900.76 819.96 376.68 1189.84 871.64 727.48 849.12 1048.96 1321.56 1251.32 925.32 769.32 1165.36 1628.68 1502.24 1274.24 1186.52 889.08 984.24 1198.96 1266.88 1677.56 1682.2 1028.56 1039.8 894.92 1044.16 1557.8 1502.92 1652.92 1754.08 1467.84 1077.48 1260.08 979.32 1115.8 1041.6 1164.28 1239.28 1381.68 1012.92 716.36 612.68 599.56 697.8 1100.64 1475.76 1464.72 943.68 600.2 680.6 852.56 897.88 917.28 1000.6 1194.64 1249.36 1218.2 1279.24 1168.6 1014.28 832.68 921.52 989.2 1206.2 1217.44 1212.6 1082.44 819.8 771.48 895.44 1225.04 1167.68 1110.32 1227.04 1219.44 1209.76 1316.52 1217.44 1052.76 1168.8 1087.52 1229.36 940.92 866.92 822.6 723.88 695.28 1018.32 840.88 991.72 936.84 626.08 764.32 774.16 1045.44 860.48 642.16 556.2 822.28 638 596 759.92 1116.44 916.32 844.68 771.96 701.16 1174.48 1059.28 882.48 725.68 858.6 1119.56 982.56 879.4 849.32 670.32 508.64 566.72 739.08 531.72 571.84 775.92 936.68 1442.68 1232.64 1106.96 907.2 829.36 687.48 613.24 686.68 840.28 759.92 734.08 511.12 407.6 471.2 446.92 866.68 442.28 776.12 503.04 195.08 361 833.76 894.28 797.96 801.24 539.6 384.64 214.4 264 94.8 124.4 67.64 56.16 143.84 77.76 39.92
277.2 273.76 278.72 288.64 303.84 292.36 279.76 279 269.48 263.64 259.48 287.84 292.08 296.44 309.76 335.52 317.64 316.64 324.24 334.2 331.56 315.48 313.12 301.56 290.32 284.72 294.76 315.32 293.36 280.52 273.28 254.8 240 229.68 359.84 257.04 277.72 268.16 365 487.6 260.88 205.16 194.44 186.52 188.12 191.76 188.2 184.36 174.96 162.76 167.88 154.92 144.72 138.64 143.16 133.6 214.08 195.48 269.32 209.56 175.6 196.88 224.28 217.28 218.44 245.24 233.2 235.4 257.4 284.6 226.6 254.72 353 332.8 323.64 221 178.76 150.48 130.44 118.44 110.44 107.88 116.08 159.12 272.16 262.16 92.76 78.24 121.68 162.08 190.92 177.88 155.52 157.36 167.8 191.08 167.8 162.84 337.76 383.4 593.72 462.52 353.12 188.04 154.52 94.12 55.6 46 43.36 37.96 31.6 28.84 27.36 26.88 25.56 21.96 17.36 13.8 14.08 17.44 11.16 6.04 3.04 3 3 3 1.2 0 0 0 0 0 0 0 0 0 0 0 0 0 0 0 0 0 0 0 0 0 0 0 0 0 0 0 0 0 0 0 0 0 0 0 0 0 0 0 0 0 0 0 0 0 0 0 0 0 0 0 0 0 0 0 0 0 0 0 0 0 0 0 0 0 0 0 0 0 0 0 0 0 0 0 0 0 0 0 0 0 0 0 0 0 0 0 0 0 0 0 0 0 0 0 0 0 0 0 0 0 0 0 0 0 0 0 0 0 0 0 0 0 0 0 0 0 0 0 0 0 0 0 0 0 20.84 33.6 7.92 2.96 8.8 49.24 15.44 131.12 68.24 23.64 144.92 184.84 119.2 156.16 169.04 281.08 404.12 337.64 115.92 168.6 168.8 27.92 121.2 117.16 113 232.16 226.8 140.72 169.08 628.76 525.2 404.64 496.56 466.76 499.4 484.72 788.92 1295.8 1302.88 1504.76 1136.72 892.12 1247.24 1596.72 2239.44 2368.08 2008.56 1401.56 1016.16 594.84 446.24 433.4 580.24 401.72 391.96 309.92 356.64 381.04 392.36 332.84 275.56 196.76 142.16 100.88 134.32 118.84 38.36 53.84 82.36 129.36 188.08 241.08 251.92 248.6 285.28 286.56 248.48 210.68 176.12 157.48 158.6 148 190.4 216.88 255.16 258.44 237.92 217 198 225.36 184.2 144.16 132.28 122.36 116.24 122.6 115.48 110.84 141.44 467.8 707.08 302.16 336.24 851.64 1224.2 1219.12 1223.64 1372.92 1662.96 1764.56 1365.36 1088.4 1020.4 985.36 1052.6 1121.24 1044.8 1056.48 1098.96 1059.76 870.16 834.04 828.32 867.4 963.24 1157.76 1172.72 1291 1571.84 1745.8 1372.2 1306.16 1369.52 1363.6 1078.72 991.28 945.12 993.36 1019.16 1002.96 977.36 951.4 916.6 901.68 894.68 904.32 888.24 897.24 967.36 1153.4 988.32 795.56 579.6 462.88 518.84 650.56 876.64 978.44 769.8 341.2 802.92 1116.4 796.16 917.84 1074.56 1090 1043.96 963.64 757.2 981.2 1335.52 1593.28 1282.16 1316.6 909.84 989.12 1048.92 1289.64 1947.04 1802.92 1237.6 1069.56 1175.32 1202.16 1459.84 1311.24 1319.4 1458.28 1224.56 1288.44 1250.8 1174.8 1066.12 994.84 923.2 908.88 1043.08 823.4 622.12 589.8 590.8 709.76 1004.36 1405.2 1207.2 974.52 765.16 835.28 766.56 970 881.12 1014.64 1203.56 1388.8 1245.28 1085.16 871.92 805.04 828.84 933.56 1220.4 1252.8 1004.64 1041.16 960.64 983.68 1164.52 1211.2 1127.64 1127.2 1038.44 998.68 1100.52 1181.12 1306 1382.16 1258.36 1286.52 1206.44 1215.96 752.88 722.56 802 754.44 551.36 873.88 729.6 962.84 1127.24 861.04 623.68 980 1059.4 980.32 776.12 598 522.84 579.76 730.16 929 1036.36 1114.16 898.76 992.32 634.76 877.28 1121.76 1072.4 834.76 818.72 1144.92 1210.76 1240.2 902.4 727.92 687.48 499.6 513.12 912.68 1013.08 1030.48 935.04 791.44 1127.04 1269.44 1229.84 878.16 812.4 745.04 655.8 726.32 812.92 884.72 986.32 631.36 470.68 327.04 437.84 783.2 484.2 846.32 407.92 325.4 472 709.72 663 935.36 951.2 819.24 356.32 242.32 159.88 87.96 80 133.2 140.36 106.44 22.96
273.32 276.76 281 291.2 303.36 296.04 289.04 289.04 273.8 265.6 261.96 302.16 311.16 323.76 335.28 337.08 336.48 325.84 327.44 340.04 337.96 325.8 316.28 306.32 298.6 292.24 292.24 303.8 289.96 272.08 250.92 236.2 244.92 289.52 246.76 227.04 331.36 402.56 376.52 313.4 219.44 202.64 190.92 188.2 178.8 181.24 175.76 182.52 176.12 171.6 171.28 160.44 151.8 137.72 134.84 140.64 193.4 167.24 185 164.8 167.56 187.92 185.28 167.48 173.8 190.68 220.72 210.04 251.2 308.08 310.08 310.68 377.12 379.92 293.52 235.28 178.64 166.72 149.8 137.84 124.84 119.52 116.12 116.16 145.32 121.36 137.6 218.84 158.6 176.52 204.72 190.04 204.48 165.6 122.64 169.2 146.52 156.96 250.32 350.36 313.92 485.16 454.72 249.12 185.56 147.96 83.08 74.52 72.56 55.16 40.72 30.32 26.4 24.12 21.72 18.4 14.44 11.4 11.6 12.16 9.4 4.6 3.48 3.12 3 3 1.44 0 0 0 0 0 0 0 0 0 0 0 0 0 0 0 0 0 0 0 0 0 0 0 0 0 0 0 0 0 0 0 0 0 0 0 0 0 0 0 0 0 0 0 0 0 0 0 0 0 0 0 0 0 0 0 0 0 0 0 0 0 0 0 0 0 0 0 0 0 0 0 0 0 0 0 0 0 0 0 0 0 0 0 0 0 0 0 0 0 0 0 0 0 0 0 0 0 0 0 0 0 0 0 0 0 0 0 0 0 0 0 0 0 0 0 0 0 0 0 0 0 0 0 0 0 0.76 17.24 25.8 9.08 2.44 25.6 6.8 104.2 115.08 16.76 54.8 208.08 86.28 122.96 142.44 231.88 321.48 493.92 184.92 100.28 118.24 62.56 38.48 134.64 162.72 250.6 230.64 161.08 316.24 604.48 386.72 486.04 413.36 428.12 437.52 739.68 1197.28 1280.28 1630.92 1421.24 1447.6 838.6 1366.08 1961.48 1867.52 1641.48 1729.04 1219.64 870.68 581.32 496 552.36 515.52 532.12 485.4 358.28 346.16 323.68 330.24 323.48 294.4 193.44 133.32 102.88 115.08 118.32 36.2 58.76 97.24 164.32 227.48 302.76 336.44 322.96 309.64 296.48 278.96 237 211.96 176.52 176.44 172.4 224.96 230.84 245.24 270.76 251.2 220.64 201.24 203.44 188 157.32 140.28 125.32 120.16 126.4 119.36 114.16 150.08 454.64 748.56 293.56 280.48 597.2 1173.08 1113.16 1149.28 1350.52 1813.72 1803.28 1251.68 1054.8 994.12 1035.88 1112.48 1041.52 985.68 1019.36 1090.28 1078.12 918.12 851.48 882.92 949.12 1023.32 1269.64 1220.2 1299.32 1593.88 1734.32 1314.2 1346.32 1365.32 1541.8 1280.64 1019.6 943.84 990.28 1024.96 1022.88 981.16 934.92 886.52 884.36 885 877.92 921.56 1056.8 933.68 884.08 1007 726.36 554.64 522.52 437.84 631.12 728.92 905.24 736.4 449.04 509.24 671.36 608.84 759.68 953.36 794.16 972.28 1035.56 761.44 957.6 1364 1384.6 1206.44 1075.76 824.76 916.48 1041.24 1284.12 1655.2 1918.52 1751.52 1331.92 1114.4 1139.84 1119.04 1176.44 1279.36 1278.56 1005.4 1089.84 1291.04 1198.08 918.84 982.92 871.12 823.48 713.16 644.2 564.6 630.24 636.84 584.88 859.08 1212.04 1022.96 707.4 629.8 699.64 647.12 891.36 1135.04 1282.88 1516.16 1414.92 1230.16 1101.8 896.4 1104 1350.04 1295.12 1321.24 1307.56 973.76 877.4 950.52 1099.28 1096.44 1208.96 1199.96 1234.44 1020 1024.04 1029.44 1244.36 1022.6 1076.56 1169.04 1349.04 1098.36 1097.96 862.8 663.96 635.36 647.88 521.84 578.76 536.8 691.64 896.96 986.64 563.2 902.16 759.36 722.64 622.8 569.48 593.44 724.76 722.24 735.04 923.84 1048.36 1046.64 1122.92 844.56 698.92 910.28 905.52 825.44 894.96 1025.56 1054.32 1148.56 970.84 952.56 937.32 853.96 678.72 688.24 579.8 666.88 1037.64 929.68 829.28 923.6 1051.6 1138.72 963.16 876.36 749.56 730.48 732.72 543.28 857.4 709.72 584.88 497.88 513.4 428 498.2 525.88 709.08 448.24 255.04 841.32 915.72 756.72 730.92 817.48 520.8 185.76 266.08 153.44 98.04 224 389.44 47.28 27.88
275 280.24 284.12 290.28 305.36 300.76 291.32 286.72 276.84 263.36 260.44 283.32 287.72 301.6 312.28 326.76 335.36 350 344.08 350.72 350 338.6 329.28 317.88 314.12 303.24 306.44 302.64 266.84 257.08 241 297.44 336.44 259.52 220.96 208.2 209.88 235.6 228.92 218.08 193.68 197.32 187.8 180.84 174.64 169.56 165.36 176.28 166.8 159.72 163.2 156.88 168 138.24 136.68 140.04 153 166.48 160.28 161.2 177.6 188.24 194.44 173.64 166.88 194.4 187.04 186.96 211.04 252.84 357.8 438.28 439.92 449.24 435.12 385.88 274.52 229.36 191.48 168.24 149.56 142.72 127.96 130.4 99.08 119.04 124.44 157.6 230.6 181.48 177.4 157.72 195.8 193.6 171.24 111.48 134.32 187.4 217.96 194.92 198.92 225.8 262.28 276.2 334.04 282.92 111.08 70.6 69.08 48.24 40.28 34.44 30.68 29.28 25.04 20.04 15.52 13.36 12.04 11.36 7.96 4 3.08 3.12 3.68 3.48 2.76 0.48 0 0 0 0 0 0 0 0 0 0 0 0 0 0 0 0 0 0 0 0 0 0 0 0 0 0 0 0 0 0 0 0 0 0 0 0 0 0 0 0 0 0 0 0 0 0 0 0 0 0 0 0 0 0 0 0 0 0 0 0 0 0 0 0 0 0 0 0 0 0 0 0 0 0 0 0 0 0 0 0 0 0 0 0 0 0 0 0 0 0 0 0 0 0 0 0 0 0 0 0 0 0 0 0 0 0 0 0 0 0 0 0 0 0 0 0 0 0 0 0 0 0 0 0 0 1.92 28.08 60.12 3.76 10.48 4.24 107.84 159.04 19.4 43.24 109.72 107.2 81 105.56 148.72 325.68 417.84 238.68 67.36 54.36 115.08 41.68 294.36 373.56 270.16 178.76 140.92 298.76 602.52 434.96 356.76 441.28 531.56 821.28 549.32 875.44 1197.8 1350.68 1143.28 1424.44 864.52 1124.36 1717.36 1446.24 1283.4 1111.84 1120.6 732.44 531.68 521.12 483 485.64 539.08 558.72 366.6 299.6 284.72 268.88 263.36 246.64 186.88 127.36 101.92 86.88 133.84 37.44 62.72 111.28 182.2 243.68 322.4 382.52 387.48 371.12 338.36 306.16 286.76 286.92 233 197.76 213.44 257.64 277 247.2 275.44 263.2 234.56 215.68 233.48 211.56 160.32 143.56 128.08 125.68 144 125.48 116.68 166.44 480.92 615.48 397.76 240.8 384.56 927.04 1030.76 1078 1290.88 1715.04 1766.16 1162.16 1040.8 1060.36 1099.04 1097.24 998.4 973.48 990 1080.08 1110.08 1011.8 876.64 884.56 934.8 1100.84 1471.08 1313.24 1269.48 1692.88 1766.04 1367.4 1342.88 1409.64 1627.12 1333.16 1031.12 943.76 983.88 1008.68 1044.28 1036.24 953.28 1020 866.48 864.6 879.44 949.68 1087.72 873.52 848.2 849.4 642.32 562.96 410.24 419.56 699.48 820.36 746.36 619.04 537.44 720 520.36 567.2 792.8 733.44 681.04 1007.04 922.16 721.56 835.48 1221.6 1271.76 964.36 1092.08 942.96 1139.6 1232.96 1151.08 1356.68 1592.76 1693.4 1549.36 1123.36 977.2 969.92 1039.52 1274.44 1041.12 949.6 1066.28 1089.2 950.6 893.84 891.44 942.44 876.84 672.56 594.52 629.48 837.12 850 689.2 745.8 975.12 810.68 625 822.88 1003.68 991.52 916.68 1120.8 1241.44 1344.8 1064.6 925.44 921.6 1066.2 1257.12 1383.96 1694.8 1365.68 1136.76 1051.04 797.68 780.6 974.4 899.76 979.84 898.96 1072.24 1244.92 1057.72 1212.32 1042.4 927.88 997.64 1011.48 1017.8 1259.68 1001.56 1062.36 705.28 682.28 945.76 559.36 731.52 649.12 621.52 646.04 718.28 612.32 631.28 538.76 538.2 527.84 549.96 659.16 820.6 618 621.52 930.4 1036.88 1231.56 1225.36 997.88 881.2 897.48 888 871.52 790.12 1039.16 1076.64 1173.24 1311.32 1369 1322.28 1277.2 1083.4 989.76 752.76 463.16 747 982.44 1073.76 1063.68 900.24 825.2 886.4 1077.6 920.08 786.84 749.64 459.72 505.32 534.36 562.88 728.48 627.96 349 296.6 258.84 435.64 515.64 229.64 395.76 667.88 827.04 498.08 790.8 544.96 372.88 344.16 348.48 201.32 221.12 521.6 141 41.32
275.8 279.6 288.12 296.12 301.16 292.76 281.72 276.88 267.52 260.48 270.08 321.16 314.36 319.88 325.52 317.24 329.2 366.68 362.92 360.64 355.84 346.28 334.12 328.64 313.6 307.72 309.56 292.32 278.04 259.04 289.12 370.36 288.16 248.68 225.92 215.8 196.08 194.44 198.48 200.48 181.92 179.68 179.64 166.52 160.96 160.2 157.96 159.12 155.72 150.16 154.68 155.4 138.56 132.6 133.08 144.04 173.4 197.12 147.56 180.4 175.28 232.64 246.96 239.28 157.68 172.88 140.24 182.24 219.08 204.16 254.04 300.64 351.12 334.12 375.44 421.04 311.84 408.28 238.76 195.96 180.72 164.36 154.28 180.2 164 169.56 115.76 79.2 117.88 110.2 139.84 140.88 225.64 209.96 219.72 115.64 104.8 116.64 138.92 99.84 115.28 171.56 186.16 157.68 125.24 125.8 84.12 61.36 63.32 54.92 43.96 33.16 27.56 25.28 23.08 21.68 20.36 17.96 18.12 20.2 14.32 8.52 7.12 5.72 4.72 3.32 3.2 2.04 0 0 0 0 0 0 0 0 0 0 0 0 0 0 0 0 0 0 0 0 0 0 0 0 0 0 0 0 0 0 0 0 0 0 0 0 0 0 0 0 0 0 0 0 0 0 0 0 0 0 0 0 0 0 0 0 0 0 0 0 0 0 0 0 0 0 0 0 0 0 0 0 0 0 0 0 0 0 0 0 0 0 0 0 0 0 0 0 0 0 0 0 0 0 0 0 0 0 0 0 0 0 0 0 0 0 0 0 0 0 0 0 0 0 0 0 0 0 0 0 0 0 0 0 0 0 7.16 73.68 5.96 4.92 2.92 171.16 246.52 34.56 12.76 42.84 99.04 68.84 104.36 169.6 391.32 443.52 330.28 34.84 27.52 73.6 27.08 175.72 259.08 233.12 140.44 154.48 198.12 277.56 619.56 287.84 533.52 748.68 909.96 699.44 698.88 802 977.96 1217.16 1458.12 1189.72 822.4 1526.32 1724.88 1221.68 957.48 841.84 557.16 438.36 458.48 435.44 397.64 456.04 479.2 332.08 261.04 263.28 238 210.84 185.52 168 139.24 106.4 79.36 101.4 53.72 66.24 124.88 183.36 258.2 324.4 390.16 445.24 427.76 366.6 351.52 319.48 315.48 262.24 218 262.4 254.08 323.16 278.24 290.96 282.68 247.08 220.04 225.52 194.12 172.92 146.76 134.44 136.32 167.76 139.44 123.32 143.76 391 569.4 675.68 335.56 327.36 598.64 932.88 1021.84 1247.72 1491.68 1684.24 1165.08 1092.56 1175.48 1267.68 1276.48 1026.28 959.36 957.72 1035.08 1074.12 1038.6 956.68 901.56 1024.64 1094.64 1663.2 1301.32 1223.72 1617.4 1725.12 1415.64 1312.64 1379.28 1437 1194.88 960 962.92 972 980.08 991.76 1081.72 904.72 912.44 857.08 855.84 884 960.52 1136.16 869.32 836.48 763.36 589.68 461.76 376.64 366.96 667.16 804.24 608.64 490.28 713.12 727.72 711.28 724.04 766.52 728.12 930.32 876.96 872.8 724.64 739.92 1056.84 1210.28 877.88 1081.12 1166.12 1282.84 1537.52 1418.52 1187.4 1399.2 1471.2 1659.68 1360.8 986.56 949.56 969.04 1172.28 926.48 1025.8 946.56 1056.44 904 907.84 843.8 798.56 702.72 773.28 729.8 739.88 890.04 952.4 947.56 921.08 602.6 535.96 730.76 838.36 842.64 873.64 891.16 879.84 906.24 887.88 924.08 870.12 930.68 1169.2 1327.52 1379.76 1570.32 1054.44 944.76 1018.92 703.44 718.92 1222.64 1095.8 846 687.76 791.96 1157.88 1120.16 1156.2 956.96 889.88 945.08 951.64 916.76 1083.6 937.68 1115.48 963.88 872.36 914.56 671 828.04 741.04 793.84 681.68 588.4 754.24 920.4 678.28 785.48 655.72 612.84 568.92 746.56 564.44 743.2 872.92 777.12 1071.08 1310.64 1092.68 1029.6 1160.2 1100.52 1007.92 859.64 1057.28 1042.92 1143.24 1177.04 1158.72 1447.32 1522 1055.36 728.2 639.2 565.2 497.4 679.4 809.2 961.04 994.12 683.52 931.12 1031.36 1113.92 981.56 923.56 823.84 551.32 407.8 432.88 758.76 1126.56 805 540.92 315.24 245.72 161.8 338.52 359.88 345.88 453.4 386.48 506.28 608.88 669.88 455.04 323.12 214.32 221.56 193.72 73.36 46.44
294.2 291.36 295.76 304.04 303.48 296.12 289.6 278.76 275.04 276.4 274.56 289.32 299.12 324.64 337.2 316.92 327.72 435.8 387.6 356.36 334.08 323.56 310.96 297.68 285.96 292.24 299.52 270.6 255.08 235.96 288 240.8 231.2 224.56 219.32 198.32 194.68 177.2 172.4 171.32 164.52 172.16 167.12 159.88 157.52 152.6 143.64 145.96 141.36 141.28 142.12 150.08 152.92 133.24 136 153.12 162.36 162.2 135.88 132.56 124.68 122.68 114.76 143.36 141.96 123.04 116.24 132.2 144.32 154.16 160.52 176.12 212.6 248.52 307.52 343.88 287.88 312.8 239.28 181.12 159.92 146.08 155.36 252.68 251.44 242.52 160.64 85.04 67.6 73 82.56 121.08 134.8 91.36 180.56 106.92 158.4 108.4 86.24 76.16 81.2 75.64 59.72 64.84 74.12 73.68 76 54.04 40.04 42.92 36.16 28.32 22.76 16.28 18.12 15.84 11.92 11.2 6.44 5.68 10.52 9.2 6.88 5.56 7.2 3 2.08 1.28 0.12 0 0 0 0 0 0 0 0 0 0 0 0 0 0 0 0 0 0 0 0 0 0 0 0 0 0 0 0 0 0 0 0 0 0 0 0 0 0 0 0 0 0 0 0 0 0 0 0 0 0 0 0 0 0 0 0 0 0 0 0 0 0 0 0 0 0 0 0 0 0 0 0 0 0 0 0 0 0 0 0 0 0 0 0 0 0 0 0 0 0 0 0 0 0 0 0 0 0 0 0 0 0 0 0 0 0 0 0 0 0 0 0 0 0 0 0 0 0 0 0 0 0 0 0 0 0 62.64 15.28 11.96 6.36 156.08 240.92 51.64 7.96 14.68 114.24 101.68 126.6 284.24 312.28 362.92 356.08 35.12 16.32 45.08 15.6 64.72 188.12 216.72 170.96 175.8 202.28 365.8 618.92 255.88 510.88 896.36 705.24 702.2 1047.44 883.4 994.32 1082.12 1135.28 1064.24 806.28 1162.24 1689.48 1434.2 1138.84 775.88 543.2 454.32 467.44 436.68 343.88 381.88 425.8 315.36 245.44 232.2 261.2 235.32 222.88 232.04 154.12 111.44 75.88 105.08 59.72 72.32 149.6 207.92 270.32 328.2 387.48 452.52 440.4 396.32 421.92 366.16 328.2 296.36 281.84 274.48 326.88 299.72 330.76 312.32 282.16 249.24 225.68 209.92 209.92 184.64 156.44 144.08 137.84 130.48 114.56 104.2 111.32 316.88 427.72 843.44 694.24 424.92 422.52 887.08 891.08 1251.88 1502.4 1675 1220.12 1180.76 1252.8 1348.8 1399.48 1033.36 944.12 933.68 989.08 1122.72 1088.92 1039.8 1038.84 1191.64 1546.56 1619.48 1250.08 1166.76 1454.64 1560.08 1449.16 1404.44 1349.16 1106.16 1006.72 911.56 964.16 987.2 952.24 928.64 897.92 911.08 831.88 836.52 827.6 889.68 997.4 1037.8 833.8 793.92 735.16 624.2 531.88 501.6 339.96 711.76 625.56 344.76 291.16 386.6 360.04 968.72 875.12 745.6 605.2 855.84 819.04 675.8 660.72 620.12 764.92 894.28 898.92 1017.56 1145.4 1266.12 1418.64 1461.12 1296.8 1344.96 1411 1861.28 1785.8 1442.48 1274.36 1127.96 950.24 903.76 1035.04 917.84 804.24 817.96 843.76 962.44 951.52 787.44 879.48 905.68 1000.96 1014.2 1229.6 1365.96 1108.32 673.24 638.52 612.8 616.04 583.28 641.16 606.92 679.04 686 770.64 1106.16 1131.52 1209 981.2 1323.56 1559.2 1329.84 843.2 818.36 733.4 641.32 577.16 700.64 806.92 1051.04 889.8 1005.56 854.96 911.48 899 843.92 874.56 1034.32 1077.8 1014.8 910.56 1062.56 833.24 846.68 935.96 980.96 830.76 888.24 896.24 989 724.8 693.6 1056.4 1064.68 1078.44 939.2 650.6 578.6 529.36 559.16 640.68 734.16 802.8 674.88 914.76 1238.24 1220.92 970.84 921.92 1102.64 995.8 822.6 950.84 1275.12 1445.4 1141.8 947.04 929.2 1086.96 1076.6 953 1206.88 1107.2 711.24 493.16 586.44 590.96 773.32 541.88 716.4 956.16 1079.12 1050.28 991.8 913.4 954.4 808.72 631.4 471.48 1050.08 1205.8 1021.88 794.88 645.24 365.56 336.08 526.88 783.88 751.84 586.12 366.96 611 379.24 411.84 491.04 237.4 315.84 326.84 151.4 70.96
293.76 291.6 298 305.12 300.52 292.36 284.6 282.76 287.16 284.32 279.84 288.52 293.08 301.12 302.64 328.28 331.56 339.08 391.8 364.72 339.52 319.4 308.08 297 298.04 308.36 300.12 271.32 262.2 237.68 259.04 293.36 350.56 272.56 349.68 246.48 199.32 184.08 192.12 178.36 179.8 175.44 168.2 162.2 169.28 233.36 161.16 164.8 155.96 154 138.24 126.92 138.48 140.72 132.76 146.12 145.72 146.8 128.28 110.88 112.56 106.96 105.68 128.8 226.4 113.84 133.92 127.76 133.84 133.52 141.88 158.6 189.08 219.92 249.6 266.72 309.32 292.96 236.32 238 205.48 169.16 149.96 171.28 264.04 263.84 156.72 81.88 69.04 75.08 75.52 84.4 77.84 70.88 61.76 69.76 83.08 73.12 76.6 93.44 55.4 70.36 57.52 64.64 103.24 135.12 79.52 85.68 31.16 31.92 29.52 25.36 20.84 12.96 11.96 9.84 8.2 6.08 3.36 2.6 1.92 1.8 1.48 1 1.56 1.08 1 1 0.6 0 0 0 0 0 0 0 0 0 0 0 0 0 0 0 0 0 0 0 0 0 0 0 0 0 0 0 0 0 0 0 0 0 0 0 0 0 0 0 0 0 0 0 0 0 0 0 0 0 0 0 0 0 0 0 0 0 0 0 0 0 0 0 0 0 0 0 0 0 0 0 0 0 0 0 0 0 0 0 0 0 0 0 0 0 0 0 0 0 0 0 0 0 0 0 0 0 0 0 0 0 0 0 0 0 0 0 0 0 0 0 0 0 0 0 0 0 0 0 0 0 0 0 0 0 0 9.72 59.76 1.48 2.56 60.4 243.36 39.6 9.08 13.48 100 150.48 139.68 248.52 246.2 226.96 368.28 77.24 11.24 28.32 6.28 24.68 132 192.8 156.16 101.84 167.92 298.84 632.28 381.04 391.12 770.6 812.52 958.68 1021.36 951.4 1000.32 1395.84 1221 1080.96 599.44 922.68 1497.24 1400.32 951.28 861.16 618.52 496.04 592.48 602.52 378.36 285.36 380.52 278.2 216.4 215.96 279 230.04 201.64 196.8 156.6 99.12 90.72 66.96 43.24 94.28 204.6 233.84 281.2 368.6 409.92 435.92 427.72 568.56 727.84 528.88 459.16 411.84 359.36 301.8 370.84 345 347.72 330.88 300.8 267.16 252.56 237.32 232.16 196.12 169.56 160.04 144.32 136 118.2 107.88 115.32 144.68 559.32 1049.6 817.52 407.6 327.76 517.8 785.44 1247.88 1490.48 1652.92 1301.6 1238.36 1321.52 1370.88 1310.36 1008.16 940.44 936.92 1018.56 1205.88 1220.68 1307.28 1319.96 1224.4 1350.04 1559.64 1437.44 1184.8 1452.56 1495.84 1526.36 1383.48 1272 1127.36 1019.88 923.24 904 936.72 958.6 925.08 861.64 900.88 843.8 834.36 802.84 881.44 919.52 1031.48 891.16 711.6 703.8 744.88 789.16 618.52 359.88 490.68 316.56 406.32 608.4 766.44 347.48 512.76 755.44 1254.64 1012.16 1102.12 1121.8 776.36 613.76 704.56 958.04 941.4 1121.68 1291.88 1168.64 1178.12 1363.44 1176.12 1121.08 1202.32 1338.08 1614.8 1683.64 1516.04 1220.16 1173.48 836.48 865.44 899.72 708.64 597.64 665.92 957.44 1153.44 1290.12 934.4 1018.36 1242.12 1296.28 1141.12 1187.72 1227.88 764.32 760.04 774.12 707.32 598.48 552.48 553.48 646.6 863.84 954.68 1216.92 1349.52 1402.84 1175.72 1477.16 1620.52 1345.56 1187.08 881.4 866.32 742.52 613.88 549.48 648 906.96 885.68 1277.36 1046.4 733.88 681.44 707.12 699.8 799.96 859.2 971.24 1059.48 855.4 803.52 975.2 735.76 828.36 668.56 855.64 1059.88 966.84 807.08 875.68 1121.48 994.68 947.64 769.88 638.92 635.8 890.44 566.4 565.88 712.68 758.16 854 793.24 910.24 1168.12 1219.08 1038.4 952.88 899.72 810.84 1139.52 939.88 1142.04 1324.12 1222.28 1032.88 932.36 796.32 877.76 1167.96 1039.96 827.56 607.28 660 403.76 402.24 529.68 583.6 831.8 953.68 795.12 762.48 1104.92 1164.44 1035.08 1023.84 989.64 704.28 494.68 933.32 1173.64 1109.96 892.16 623.6 300.92 497.24 726.28 750.92 696.92 446.6 429.2 526.88 804.64 521.6 555.04 649.44 449.48 238.88 140.68
296.36 295.32 303.4 307.76 299.4 293.48 289.32 288.24 287.52 289.44 284.28 297 310.6 331.32 298.68 314.24 345.04 335.04 360.04 359.68 341 317.32 301.72 300.88 308.24 309.72 291.72 268.68 252.2 255.88 350.16 680.44 623.92 470.32 347.52 252.48 250.52 365.56 290.96 262.64 235.36 209.72 189.32 177.76 174.84 197.52 177.72 159.48 179.44 169.64 171.68 142.76 130.24 129.08 122.56 122.28 127.12 133.72 128.08 111.84 105.64 99.72 91.16 83.88 86.08 99.96 158.52 164.08 140.84 118.24 141 232.08 262.88 256.8 249.08 242.16 299.28 343.84 246.24 226.84 223.08 198.16 166.48 145.12 167.36 150.96 100.36 76 64.64 66.68 79.04 132.68 204.6 218.6 111.88 68.52 50.08 60.68 54.64 50.76 39.28 67.32 84.2 50.44 60.32 63.76 50.04 33.96 28.52 27.8 26.48 23.48 18.28 11 7.24 4.76 3.36 2.96 1.68 1.44 1.4 1.24 1 1 1 1 1 1 0.88 0 0 0 0 0 0 0 0 0 0 0 0 0 0 0 0 0 0 0 0 0 0 0 0 0 0 0 0 0 0 0 0 0 0 0 0 0 0 0 0 0 0 0 0 0 0 0 0 0 0 0 0 0 0 0 0 0 0 0 0 0 0 0 0 0 0 0 0 0 0 0 0 0 0 0 0 0 0 0 0 0 0 0 0 0 0 0 0 0 0 0 0 0 0 0 0 0 0 0 0 0 0 0 0 0 0 0 0 0 0 0 0 0 0 0 0 0 0 0 0 0 0 0 0 0 0 0.04 35.64 30.12 3.68 4.32 123.12 81.68 4.72 9.24 40.84 185.92 115.92 222.6 145.04 181.76 374.88 187.96 16.2 7.36 5.6 5 138.36 126.92 140.6 62.24 117.2 208.6 320.92 319.84 366 502.36 924.32 786.76 795.8 721.92 915.4 1378.52 998.12 866.8 637.6 602.4 1059.92 1193.28 789.2 763.32 522.56 643.08 615.4 577.4 504 287.44 303.96 263.12 191.36 207.32 238.4 239.48 184.16 139.28 109.84 88.12 98.96 50.2 68.36 118.68 172.52 196.32 267.96 346.76 386.52 411.52 376.88 443 850.6 574.72 436.8 431.12 444 410.96 355.68 391.44 372 354.6 322.44 294 262.04 244.24 220.2 205.72 188.44 174.84 152.64 147.96 120.08 110.76 117.72 155.68 679.44 896.04 763.64 395 386.96 299.12 664.92 1210.4 1337.24 1568.8 1394.84 1289.6 1317 1230.92 1183.08 982.8 963.04 986.16 1048.56 1286.2 1432.28 1511.12 1415.44 1236.64 1309.52 1511.68 1428.4 1138.6 1249.88 1340.4 1520.56 1410.56 1235.48 1139.88 1028.44 951.52 979.84 918.68 900.12 887.24 908.76 878.88 881.72 916.2 817.6 831.04 909.2 1041.36 908.88 712.6 702.08 894 921.84 787.84 406 453.52 495.8 630.32 932.64 624.32 346.68 368.08 759.44 977.36 874 1211.68 1114.08 651.2 1006.96 747.92 819.24 981.92 1178.12 1133.16 1386.84 1386.92 1380.8 1091.64 1085.48 1096.52 1310.44 1416.08 1304.08 1512.84 1239.08 978.32 765.56 706.6 719.76 509.52 528.28 790.24 1200.64 1104.12 1284.64 1236.24 996.28 821.72 970.12 962.72 922.36 956.88 699.24 559.88 541.56 520.2 549.68 706.32 1022.08 1017.44 1326.52 1036.56 1163.76 1457.2 1421.12 1215.04 1471.24 1640.64 1248.92 1009.48 948.44 989.2 827.12 718.8 710.36 692.56 832.92 804.12 1004.32 1026.32 826.44 675.84 628.08 748.68 872.76 850.44 907.08 1004.16 710 669.8 805.04 767.12 710.6 694.48 767.56 1006.2 899.96 910.48 1031.92 1147.24 848.32 709.84 639.6 534.36 587.96 640.28 644.36 646.32 780.88 613 883.12 1085.68 883.48 1016.76 937.12 1101.52 984 1075.76 1109.64 1087.88 1166.68 1150.4 1389 1312.64 1092.12 969.24 907.84 795.84 926.84 1121.36 788.28 1067.56 702.6 683 651.4 490.16 446.76 765.64 599.04 607.8 579.44 723.16 1111.16 912.2 1028.72 1023.4 1002.88 907 634.08 658.84 936.68 1131.76 1011.16 849.8 370.44 527.52 863.64 599.56 345.96 256.16 505.56 686.64 635.24 476.84 405 731.84 337.72 303.96
295.96 294.96 297.32 304.32 297.28 291.76 292.04 295.36 293.04 296.92 293.4 301.44 342.56 319.96 303.2 315 337.12 356.32 369.12 361.68 343.44 316.84 307.44 313.4 320.96 300.84 285.96 270.16 258.76 324.32 736.28 561.32 335.08 295.96 259.6 267.44 369.4 367.36 277.36 249.32 277.08 301.68 231.28 205.48 192.92 179.6 172.96 156.8 162.08 185.12 196.64 168.92 139.08 131.68 131.4 123.8 112.68 112.64 104.88 104.32 95.56 92.4 95.72 100.6 90 81.2 85.04 112.08 129.84 120.24 229.2 270.44 187.84 219.24 194.48 219.44 354.72 419.44 352.52 233.92 184.72 172.16 173.2 137.4 171.56 198.36 148.4 97.6 73.92 65.88 75.68 96.84 86.76 185.32 169.12 199.36 145.08 127.28 59.2 43.96 58.96 104.96 106.56 41.96 37.28 37.6 91.28 76.16 64.8 51.8 32.92 24.04 20.08 15.04 7.76 3.68 2.8 2.68 2.8 3 2.92 2.4 1.16 1 1 1 1 1 1 0.64 0 0 0 0 0 0 0 0 0 0 0 0 0 0 0 0 0 0 0 0 0 0 0 0 0 0 0 0 0 0 0 0 0 0 0 0 0 0 0 0 0 0 0 0 0 0 0 0 0 0 0 0 0 0 0 0 0 0 0 0 0 0 0 0 0 0 0 0 0 0 0 0 0 0 0 0 0 0 0 0 0 0 0 0 0 0 0 0 0 0 0 0 0 0 0 0 0 0 0 0 0 0 0 0 0 0 0 0 0 0 0 0 0 0 0 0 0 0 0 0 0 0 0 0 0 0 0.52 9.12 2.64 2.56 47.44 149.64 28.76 3.88 35.32 102.84 192.44 250.36 114.92 205.32 221.08 214.4 31.08 4.08 4.36 4.16 22.12 108.24 110.8 120.36 60.8 122.56 135.4 215.48 235.56 581.72 286.84 418.96 462.24 496.76 743.48 1246.4 1356.52 1070.6 922.68 823.88 775.04 1050.28 921.64 605.24 495.24 700.2 633.04 506.24 659.4 305.6 282.6 215.28 164.24 181.36 216.4 191.88 174.04 150.88 84.68 51.04 37.88 45.04 97.04 153.08 223 267.12 263.64 338.84 380.84 388.32 354.16 323.04 360.24 450.92 367.52 393.48 459.16 433.72 406.08 377.88 339.6 323.04 297.2 294.2 251.16 235.32 224.4 211.36 189.72 171.28 154.16 149.48 126.12 123 123.68 157.76 450.24 541.28 561.88 438.12 412.48 447.28 732.6 1215.76 1360.56 1421.16 1425.4 1413.96 1408.72 1315.32 1259.8 984.12 919.84 983.16 1010.88 1271.36 1528.6 1453.04 1255.68 1211.72 1294.04 1514.12 1312.72 1125.52 1214.44 1163.68 1449.16 1370.12 1203 1140.04 1026.48 1055.92 1093.56 957.32 899.16 948.2 926.44 896.84 941.64 978.32 855.72 821.36 872.56 958.48 1004.52 691.08 718.56 794.6 936.12 855 408.04 631.04 728.36 824.4 854.08 835.48 611.88 676.36 593.68 655.68 918.52 1011.44 946.84 697.92 1122.8 901.96 911.84 1133.56 1205.16 1128.92 1368.76 1376.44 1155.72 1055.48 1129.44 1102.48 1397.6 1348.72 1124.4 1073.28 1091.56 896.24 746.76 678.36 550.04 499.08 602.28 875.16 1162.2 927.2 943.64 1121.48 789.92 595.76 744.16 641 618.6 635.48 523.12 489.36 560.48 594.76 762.96 891.4 738 808.88 927.88 833.52 1131.92 1461 1440 1010.08 1222.04 1302.56 1114.72 947.44 844 838.64 838.56 779.84 729 691.6 778.64 702.64 816.96 968.16 824.08 660.72 710.52 806.72 895.52 936.64 899.52 853.88 897.4 889.52 698.2 548.96 587.6 735.24 965.96 953.56 803.04 900.72 805.6 1136.44 932.64 623.72 529.56 609.64 690.92 563.28 494.44 569.76 633.76 896.88 1155.84 1128.96 944.88 827.52 821.36 916.12 1124.52 1063 1255.44 1170.12 1179.08 1363.56 1458.44 1460.88 1175.76 1066.96 1017.24 919.84 932.48 970.24 869.6 1254.28 1115.28 899.6 726.16 462.6 554.12 681.36 387.4 438.08 566.68 935.64 779.44 666.4 1134.04 1153.84 1157.2 1065.36 971.28 836.2 756.52 965.24 1067 1015.68 826.24 579.08 673.12 530.44 548.52 437.12 380.04 383.04 658.88 396.12 494.8 526.08 218.4 306
299.8 295.24 297.12 302 295.04 288.24 295.08 299.48 295.84 296.76 303.76 350.36 378.72 360.16 321.72 321.36 324.64 360.32 387.92 367.6 334.32 320.8 326.28 328 336.96 308.4 295.92 270.76 279.88 443.24 457.88 309.84 288 272.76 264.04 272.76 274.84 260.52 250.52 240.72 265.08 264.32 233.6 219.12 199.68 188.44 167.36 160.6 152.04 149 151 149.28 138.24 127.44 125.16 125.48 122.24 116.8 108.36 95.76 96.68 102.12 113.84 110.96 101.16 91.28 75.84 82.64 96.16 127.76 375.08 446.16 275.28 143.76 164.52 212.8 282.56 306.84 310.04 294.28 272.2 276.36 180.16 191.76 181.32 139.72 114.4 91.6 76.2 69.04 62.4 79.16 69.56 112.08 84.64 149.96 124 54 44.28 41.08 52.04 104.4 169.28 80.84 71.08 71.84 98.8 109.36 108.76 94.64 52.2 35.48 23.48 16.8 12.16 7.24 3.76 2.2 2.24 3.28 3.16 2.8 1.4 1 1 1 1 1 1 1 0 0 0 0 0 0 0 0 0 0 0 0 0 0 0 0 0 0 0 0 0 0 0 0 0 0 0 0 0 0 0 0 0 0 0 0 0 0 0 0 0 0 0 0 0 0 0 0 0 0 0 0 0 0 0 0 0 0 0 0 0 0 0 0 0 0 0 0 0 0 0 0 0 0 0 0 0 0 0 0 0 0 0 0 0 0 0 0 0 0 0 0 0 0 0 0 0 0 0 0 0 0 0 0 0 0 0 0 0 0 0 0 0 0 0 0 0 0 0 0 0 0 0 0 0 0 0 1.96 1.8 4.16 11.04 126.24 36.72 5.24 15.84 96.08 254.76 344.2 250.24 194.96 145.08 233.28 34.48 5.48 6.36 5.44 5.2 43.2 80 130.96 79.4 137.48 131.76 289.44 172.16 277.6 400.08 504.32 446.36 588.48 760.92 871.48 1324.24 1039.4 1045.8 868.6 710.32 575.2 752.48 517.68 375.04 590.16 635.76 393.4 568.76 334 352.92 246.8 171.56 158.52 205.44 171.52 139.96 98.76 41.84 34.68 49.68 77.56 118.84 166.32 225.56 293.52 284.64 329.36 353.28 358.48 337.88 293.4 273.8 363.56 328.76 361.72 429.12 408.68 389.44 383 343.8 320.2 300.6 275.28 259.6 246.16 229.44 209.44 191.44 169.72 154.8 143.2 132 130.2 130.2 156.56 336.24 520.08 360.52 346.68 421.4 408.04 815.68 1140.68 1315.2 1392.28 1356.56 1413.2 1431.32 1314.48 1263.72 1008.2 900.88 938.24 997.64 1378.84 1455.48 1286.96 1189.92 1178.6 1259.68 1436.28 1321.6 1286.72 1144.64 1042.04 1402 1299.76 1135.48 1071.48 1044.44 1152.56 1185.52 1022.2 943.64 1084.16 1091.2 910.2 970.84 979.04 812.08 804.8 821.08 956 1032.76 678.6 707.92 736.2 800.52 829.92 445.2 846.56 689.52 636.2 639.8 920.48 944.64 875.08 666.44 732.36 934.76 914.84 587.84 746.4 856.4 964.96 981.6 1118.64 1219.36 1298.56 1459.24 1307.44 1074.04 1019.92 1133.48 1229.92 1491.76 1303.72 1135 1192.28 985.52 720.68 650.76 644.72 611.28 646.32 602.24 770.28 1093.28 963.84 755.64 838.04 620.76 533.4 499.52 441.2 509.6 558.4 491.08 545.52 574.12 583.96 625.28 674.8 763.24 677.84 623.4 719.56 942.36 1270 1061.88 883.52 950.16 1143.24 1126.72 908.48 746.52 774.2 892.52 905.2 863.52 720.92 765.44 710.88 685.84 801.96 751.28 649.88 842.28 903.04 970.76 964.72 827.28 779.88 1015.72 1085.56 786.6 644.28 703.88 676.88 1026.84 927.12 674.96 630.84 716.28 865.88 779.96 579.48 560.4 558.64 487.6 600.96 582.28 616.48 595.4 844.04 1209.72 914.12 904.52 762.2 824.48 972.2 908.2 1002.28 1204.96 1329.92 1248.32 1282.48 1399.28 1535.16 1313.56 1170.04 1203.08 1120.16 1069.4 986.4 967.6 1104.96 1044.88 1014.2 720.84 590.12 416.48 468.44 579.04 468.72 446.6 899.08 618.76 489.64 713.56 999.04 1159.56 1071.8 1048.2 972.76 850.88 866.8 970.08 1028.08 961.08 819.08 698.8 597.12 551 415.28 603.88 477.48 372.92 303.6 628.12 440.72 134.32 222.44
307.44 305.56 301 299.4 297 290.48 294.8 299.88 301.56 303.68 316.16 350.96 413.72 388.44 349.96 340.64 326.04 358.8 397.32 389.28 343.36 353.84 389.2 356.32 363.36 319.08 314.56 291.64 335.6 362.96 321.72 324.84 296.44 278.84 272.2 281.92 280.6 263.44 251.64 242.04 221 222 208.16 194.52 190.48 183.92 170.72 158.32 150.6 150.52 145.04 140.52 136.8 134.52 138.2 138.08 135.72 129.04 124.92 110.56 113.24 117.52 123.8 119.56 140.2 100.4 77.64 78.16 89.04 90.04 118.88 209 291.44 393.12 241.92 267.6 274.28 294.16 403.44 352.72 266.4 244.6 192.88 176.24 167.8 137.12 111.28 93.64 101.76 77.88 78.16 93.08 73.28 75.36 65.2 62.12 67.12 49.6 73 106.32 57.24 61.88 116.6 165.48 151.12 71.8 74.76 97.8 85.56 93.84 74.76 47.6 32.52 20.92 15 11.36 6 1.28 2.76 4.2 3.68 3.16 1.92 1 1 1 1 1 1 1 0.24 0 0.48 0 0 0 0 0 0 0 0 0 0 0 0 0 0 0 0 0 0 0 0 0 0 0 0 0 0 0 0 0 0 0 0 0 0 0 0 0 0 0 0 0 0 0 0 0 0 0 0 0 0 0 0 0 0 0 0 0 0 0 0 0 0 0 0 0 0 0 0 0 0 0 0 0 0 0 0 0 0 0 0 0 0 0 0 0 0 0 0 0 0 0 0 0 0 0 0 0 0 0 0 0 0 0 0 0 0 0 0 0 0 0 0 0 0 0 0 0 0 0 0 0 0 0 0 0.36 1.64 2 5.6 67.48 89.88 18 5.2 28.12 114.4 216.32 215.6 128.04 163.44 206.96 35.68 3.56 5.8 4.76 7.48 24.28 84.08 91.24 43.64 115.08 296 278.16 242.72 374.16 382.4 667.68 693.44 892.56 749.28 1007.84 1173.36 1180.56 1106.88 1028.8 1052.16 776.08 600.64 662.6 403.44 358.48 553.8 406.28 353.24 375.36 318.68 230.84 158.44 138.08 194.68 180.48 126.08 76.6 43.72 32.12 50.64 84.72 133.6 174.32 204.6 249.72 263.72 296.04 312.8 303.32 305.96 270.6 258.36 326 289 305.84 373.04 391.2 349.6 386.8 367.36 348.96 315.96 292.28 279.6 248.04 219.96 201.24 194.16 178.32 158.84 146.8 138.8 135.16 134.12 149.72 298.04 417.48 364.28 380.92 513.04 541.08 705.28 1077.24 1274.68 1359.44 1321.88 1372.12 1353.32 1253.8 1342 1040.64 902.8 898.96 1043.84 1474.36 1401.92 1207.36 1164.92 1161.44 1212.96 1355.16 1544.2 1569.48 1278.76 1057.48 1522.4 1231.64 1106.8 1074.24 1096.8 1180.92 1187.64 1063.68 1001.2 1147.72 1193.84 940.96 978.6 1000.6 790.64 769.24 774 892.56 867.44 670.6 649.4 687.72 746.64 749.52 432.08 520.04 624.96 557.52 561.68 686.88 1217.2 1020.4 775.24 901.92 1002.64 754.08 735.32 762.2 849.48 903.16 989.76 1068.96 1311.32 1638.24 1459.48 1329.44 1093.68 987.16 1054.24 1328.4 1335.96 1121.56 1088.12 1120.52 969.88 654.08 571.88 649.32 772.84 812.24 551.32 624.72 1080.6 967.76 584.68 510 520.6 510.08 496.64 604.64 848.68 665.56 559.08 643.52 689.72 672.24 717.52 879.92 927.08 948.84 814.6 779.88 773.8 901 904.96 852.76 964.56 1098.72 1068.24 841.96 869.6 1099.56 1030.44 791.36 734.64 696.16 699.56 665.68 609.8 742.6 761.68 751.8 861.24 947.88 922.24 925.68 772.32 735.12 1176.08 893.68 728.28 736.8 1154.16 994.76 822.6 714.88 848.12 734.8 626.28 920.08 729.32 497.96 597.04 552.24 506.88 870.32 795.2 866.48 675.08 832.08 941.48 1071.92 765.92 668.96 757.84 753.72 859.04 921.36 1045.76 1180.4 1114.48 1164.44 1245.68 1173.68 1576.4 1354.16 1210.92 1229.32 1221.76 986.12 1028.24 1233.96 941.2 841.08 667.72 536.84 473.12 570.64 716.4 596.76 395.92 500.96 448.96 466.44 490.44 751.84 920.48 1160.48 1156.88 992.48 837.04 972.04 1044.72 1041.84 1073.04 1147.64 1202.56 1217.48 979.68 510.84 452 421.04 206.52 172.32 235.68 217.36 149.48 231.36
314.08 310.56 307 303.52 300.76 302.84 306.8 312.92 310.8 327.16 336.48 407.28 394.48 381.4 380.32 370.64 352.88 354.12 372.76 355.88 350.56 399.92 418.2 409.04 391.16 333.64 329.16 304.24 325.68 406.64 342.6 315.28 295.88 289.96 287.64 284.48 262.68 244.04 229.4 225.88 217.64 204.52 208.36 209.48 219.88 204.32 174 159.6 150.08 141.08 131.4 132.36 131.72 142.4 152.2 147.52 137.88 141.36 163.56 144.96 138.88 160.8 157.88 137.24 147.8 135.68 115 84.84 75.32 68.92 69 84.84 161.88 495.64 551.84 312.08 295.68 343.36 409.88 390.76 353.96 301.28 206.08 160.52 141.48 173.56 170.2 126.92 279.08 189.68 106.44 84.04 80.48 79.88 89.2 65.36 59.24 66.68 75.36 88.68 70.56 89.44 196.16 198.64 218.28 156.52 62.12 63.08 76.16 126.72 133.72 71.68 32.04 24.08 18.36 13.96 10.08 5.92 6 5.4 5.84 5.44 3.84 2.04 1.12 1 1 1 1 1 1.12 0.04 0.16 0 0 0 0 0 0 0 0 0 0 0 0 0 0 0 0 0 0 0 0 0 0 0 0 0 0 0 0 0 0 0 0 0 0 0 0 0 0 0 0 0 0 0 0 0 0 0 0 0 0 0 0 0 0 0 0 0 0 0 0 0 0 0 0 0 0 0 0 0 0 0 0 0 0 0 0 0 0 0 0 0 0 0 0 0 0 0 0 0 0 0 0 0 0 0 0 0 0 0 0 0 0 0 0 0 0 0 0 0 0 0 0 0 0 0 0 0 0 0 0 0 0 0 0 0 0.28 1.76 4.64 24.04 105.04 57.6 6.32 4.08 20.16 75.6 198.36 162.92 77.2 62.52 29.24 4.24 5.28 5.32 4.48 7.52 32.56 41.04 69.92 57.4 310.44 316.04 307.8 371.56 660.36 630.68 771.4 1078.08 879.28 917.2 887.84 749.16 1146.56 1093.72 1242.96 875.84 956.8 920.64 506 305.2 397.36 394.24 250.48 363.32 258.52 234.16 164.12 121.68 158.84 175.56 152.2 100.48 47.72 44.72 37.88 80.88 138.04 197.24 229.32 264.88 284.8 290.32 281.12 266.2 252.92 241.4 232.6 270.52 266.16 273.92 287 328.2 332.32 378.8 388.64 358.56 323.72 321.12 299.64 256.12 222.48 210.12 197.4 180.48 169.92 153.96 142.64 138.32 145.68 179.64 265.36 399.32 470.96 444.6 471.32 749.36 504.32 1029.88 1230 1308.08 1287.92 1316.24 1253.04 1167.36 1255.72 1064.16 900.84 923.28 1059.2 1424.92 1336.08 1201.28 1146.4 1201.52 1221.96 1545.72 1871.24 1727.48 1196.24 1084.92 1655.84 1238.36 1125.04 1118.08 1121.24 1199 1181.6 1153.08 975.44 1071.6 1171.72 1011.76 1078.52 1101.64 794.8 735.24 744.36 708.64 671.76 656.12 641.92 678.64 710.56 667.84 405.16 553.52 480.68 559.76 646.2 519.56 730.44 872.56 968.36 824.56 849.08 801.56 1073.32 635.32 871.16 985.4 1062.56 1080.76 1215.48 1473.72 1226.6 1138.2 1009.96 828.36 960.92 1242.88 1078.92 948.48 1182.44 1605.84 1205.92 590.6 596.76 600.08 773.84 743.92 592.12 530.52 641.72 512.44 402.52 470.12 469.56 601.36 809.88 1100.4 984.32 677.56 734.2 765.68 588 605.32 669.84 799.04 1132.08 1060.84 915 785.92 702.16 885.68 1077.52 883.76 892.44 908.92 927.48 992.92 1134.04 861.68 770.16 706.68 638.12 695.64 786.04 702.32 702.6 941.24 1000 933.36 797.08 901.76 894.48 940.24 748.92 761.2 1105.2 788.56 666.8 884.88 1043.68 868.88 833.92 1000.64 877.44 704.88 643.2 842.52 487.8 603.92 881.24 992 890.76 737.68 609.88 756.88 920.52 775.12 1007.76 1093.92 1005.88 709.12 603.08 708.72 882.72 824.8 1059.52 1172.44 993.92 929.84 832.4 1160.52 1240.68 1317.72 1388.44 1414.4 1307.12 1167.4 1026 1157.68 1008.16 814.8 868.12 466.76 840.44 866.52 1105.68 709.24 508.2 564.56 523.68 632.48 434.48 563.08 546.72 767.72 1213 1076.64 943.72 768.64 651.08 560.08 489.6 682.04 831.76 1065.44 1090.4 871.04 494.64 306.4 484.96 318.4 156.64 182.04 214.6 320.16
317.08 313.64 309.88 309.4 318.64 351.04 359.8 354.08 365.08 382.36 343.04 402.44 341.44 354.32 359.04 371.88 362.24 348.04 370.2 415.4 406.2 396.08 570.12 373.48 325 329.88 350.08 309.12 448.52 380.56 370.76 347.84 316.72 321.92 304.04 279.8 251.88 244.2 244.28 239.64 225.76 213.76 213.28 221.92 235.92 211.12 174.48 160.48 151.4 145.08 139.12 133.76 127.48 154.04 159.32 145.04 152.32 154.84 153.8 147.68 137.92 152.76 164.16 164.2 150.84 299.64 293.32 142.4 97.12 84.88 70 77.4 70.44 155.36 461.8 300.16 273.88 349.44 288 304.64 400 369.6 337.2 250.72 165.16 156.56 142.16 188.76 281.04 156.32 112.6 156.68 155.36 86.6 74.24 78.6 98.48 143.16 243.84 95.76 131.12 251.6 192 169.6 150.84 90.24 123.12 69.32 108.44 105.56 73.76 37.28 22.16 21.4 17.84 15.28 13.12 10.44 8.48 8.36 8.04 6.2 4.92 2.92 1.76 1 1 1 1 1 2.12 0.96 0 0 0 0 0 0 0 0 0 0 0 0 0 0 0 0 0 0 0 0 0 0 0 0 0 0 0 0 0 0 0 0 0 0 0 0 0 0 0 0 0 0 0 0 0 0 0 0 0 0 0 0 0 0 0 0 0 0 0 0 0 0 0 0 0 0 0 0 0 0 0 0 0 0 0 0 0 0 0 0 0 0 0 0 0 0 0 0 0 0 0 0 0 0 0 0 0 0 0 0 0 0 0 0 0 0 0 0 0 0 0 0 0 0 0 0 0 0 0 0 0 0 0 0 0 0 0 0.52 1.48 8.08 58.24 97.8 15.8 4.52 3.32 31.28 87.64 121.24 128.84 38.28 18.6 4.72 7.28 4.92 5.4 5.72 21.24 55.56 13.8 127.16 208.08 314.24 234.76 284.48 448.4 558.88 479.96 909.8 804.08 655.44 506.28 804.76 1167.52 1271.6 1156.92 1237.04 617.2 555.28 426.68 276.92 217 309.24 238.96 358.4 283.08 181.08 146.84 121.48 127.96 145.96 118.52 98.36 58.88 42.56 43.24 70 131.44 204 278.32 345.6 353.48 336.36 273.04 237.64 226.56 215 211.08 220.32 253.88 252.84 266.04 295.16 311.88 351.04 382.64 373.28 347.24 318.92 299.68 254.4 254.72 228.88 201.56 180.48 171.04 169.4 150.2 146.76 149.56 181.24 333.76 533.24 670.36 556.52 420.16 574 731.8 1105.68 1405.84 1326.16 1289.32 1296.4 1262.24 1140.76 1163.48 1082.2 872.72 910.4 1234.96 1361.72 1263.16 1202.4 1140.12 1182.92 1234.4 1528.52 2103.8 1616.28 1079.92 1293.68 1511.64 1196.28 1159.72 1188.56 1169.84 1300.64 1232.84 1162.44 935.16 937.84 999.24 1047.76 1248.96 1260.28 940.04 760.32 733.04 725.6 712.44 695.16 646.44 687.6 672.72 484.36 561.24 419.12 640.4 674.04 878.68 728 682.24 468.28 709.24 634.88 848.16 1117.56 1117.12 647.6 705.72 872.04 1146.28 1038.88 1181.16 1103.6 964.88 979.52 1181.2 1074.64 887.48 1105.56 1018.64 1265.52 1590.16 1631.16 1087.76 660.8 545.68 572.28 683.52 792.4 663 556.24 466.36 407.52 456.44 523 592.28 640.28 835.64 1023.64 844.56 649.36 838.6 657.16 542.76 594.88 726.4 824.92 1150.88 1120.96 1024.76 873.28 743.28 716.96 805.48 760.64 742.56 851.4 1067.24 1143.08 1215.36 1094.56 980.04 796.92 665.48 581.2 790.68 638.44 778.76 786.6 785.92 804.84 785.16 876.8 923.4 845.84 742.76 740.6 665.28 764.36 1000.04 1144.8 1029.84 881.6 1119 1186.88 761.64 560.04 666.72 594.4 410.6 681.56 965.16 1001.2 571.16 531.24 537.72 791.36 1043.44 869.56 800.08 960.8 1156 762.6 650.48 730.4 912.92 1045.8 1155.28 1234.2 1142.04 1067.36 874.8 865.44 948.32 1155 1271.84 1154.76 1446.08 1386.44 1101.6 755.4 900.12 809.92 806.28 650.32 1190.2 1020.48 1265.92 1077.6 732.96 609.52 569.44 456.08 509.8 458.12 569.64 751.08 890.76 858.04 1148.08 1124.04 1218.28 1106.72 641.08 433.36 423.76 705.68 479.52 374.44 753.8 905.64 633.6 593.28 278.88 268.28 256.68 353.84
332.52 331.16 324.96 339.28 350.92 363.76 372.4 382.6 399.76 400.52 331.92 331.72 329.12 331.84 341.6 365.12 368.92 376.6 450.52 475.36 463.48 587.92 663 362.8 317.48 314.64 356.92 296.04 320.76 353.08 312.16 303.92 293.08 311.28 284.84 287.72 286.84 266.36 264.32 253.56 239.04 232.24 218.04 218.16 267.88 280.84 196.44 174.72 165.4 164.32 168.44 154.44 147.28 255.44 184.4 246.2 378.64 406.56 264 177.84 246 229.12 273.68 170.76 221.68 347.08 378.08 253.84 146.92 110.24 163.16 219.68 92.68 73.04 171.92 224.36 381.68 239.36 198 241.32 417.56 508.76 482.92 528.28 304.08 246.24 187.28 264.76 162.48 141.24 173.6 195.84 227.32 185.4 117.32 113.04 114.32 149.48 145.6 185 225.48 178.44 194.04 196.04 131.04 91.92 94.2 107.76 109.8 70.64 29.8 55.68 116.2 18.96 9.76 8.36 7.68 11.52 9.6 9.4 8.6 8.08 5.8 2.8 1.64 1 1 1 1 0.84 0.12 0 0 0 0 0 0 0 0 0 0 0 0 0 0 0 0 0 0 0 0 0 0 0 0 0 0 0 0 0 0 0 0 0 0 0 0 0 0 0 0 0 0 0 0 0 0 0 0 0 0 0 0 0 0 0 0 0 0 0 0 0 0 0 0 0 0 0 0 0 0 0 0 0 0 0 0 0 0 0 0 0 0 0 0 0 0 0 0 0 0 0 0 0 0 0 0 0 0 0 0 0 0 0 0 0 0 0 0 0 0 0 0 0 0 0 0 0 0 0 0 0 0 0 0 0 0 0 0 0 0 0.48 9.96 121.08 61.24 5.76 5.08 9.48 39.88 112.08 59.96 110.84 40.2 6.36 5.72 5.8 5.72 5.36 15 15.96 11.36 46.2 116 304.84 192.4 378.48 254.8 319.32 549.16 848.88 601.96 503.4 428.36 661.08 935.32 1125.32 815.04 724.8 781.04 882.76 753.6 350.04 186.44 258.76 247.64 387.84 342.88 202.32 140.6 112.36 105.48 113.52 102.92 89.88 55.48 44.84 31.6 47 107.48 195.44 295.04 357.88 357.88 306.8 244.36 200.44 179.84 193.56 215.48 233.48 294 284.16 279.88 308.56 335.12 344 348.52 352.6 363.48 318.88 290.8 284.6 270.68 256.64 220.28 193.72 179.48 198.72 173.12 158.04 153.52 174.44 246.56 347.24 737.44 630 480.84 655.76 1088.92 1230.96 1372.96 1357.08 1286.48 1312.6 1311.32 1200.68 1330.36 1175 873.2 919.72 1337.08 1391.8 1225.64 1160.92 1115.48 1199.44 1225.92 1645.56 1997.32 1409.92 1046.68 1442.2 1491.2 1164.28 1174.36 1220.72 1208.76 1382.96 1469.44 1180.04 909.4 909.76 939 1101.08 1278.68 1298.6 982.4 805.28 762.36 735.68 793 715.12 617.12 633.24 734.84 832.88 812.44 526.92 401.12 636.16 712.28 924.68 993.24 830.24 558.2 619.52 868.32 1192.72 923.16 670.84 914.96 1038.04 1020.48 998.4 916.08 911.64 748.44 900.4 916.44 875.72 846.92 864.8 985.4 1303.64 1560.24 1359.88 924.72 771.64 603.84 595.52 531.28 573.92 709 646.52 481.52 588.44 607.6 536.56 719.8 1036.92 1304.24 904.56 636.84 648.16 632.48 547.08 664.4 804.04 934.92 852.12 959.52 974.92 907.92 871.16 955.24 829.44 747.44 739.84 791.72 886.92 1052.2 1054.84 1272.88 1175.48 863.2 685.4 633.56 562.92 682.4 776.24 872.6 776.24 955.32 866.92 895.84 951.32 951.52 772 985.24 842.96 844.16 1133.72 1418.4 1487.28 1006.6 913.68 929.64 760.28 789 535.32 530.6 437.04 420.64 551.72 773.96 533.04 428.96 848.2 702.72 865.6 919.96 677.48 669.6 980.6 885.24 627.68 722.04 886.4 972.12 989.08 1150.28 1154.36 1276.32 1253 1202.6 818.92 794.04 972.12 1118.2 947.24 1193.4 1286.16 1100.4 778.48 749.8 671.96 977.04 1130.08 1175.96 1150.88 1012.2 1005.44 1103.52 932.96 969.84 727.88 589.36 542.96 386.68 659.76 557.72 844.4 874.52 971.4 808.08 613.16 473.88 368.84 497 813.64 734.2 368.12 220.2 408.76 297.32 729.28 484.52 216.28 204.36 349.48
328.12 347.32 343.64 352.04 375.12 384.68 401.64 410.84 407.4 366.12 342.28 353.36 368.44 357.4 350.76 354 370.08 491.24 523.8 532.8 678.28 619.68 653.96 364.96 302.56 299 311.32 291.2 360.72 343.16 355.72 305.64 273.56 266.36 271.24 270.48 272.84 276.96 280.28 252.52 225.48 215.08 195.84 207.4 217.48 203.64 205.64 189.08 186.84 180.72 163.24 154.36 155.48 222.24 229.08 293.96 351.24 389.52 276.12 268.12 389.4 473.72 468.64 299.36 399.12 463.52 536.32 465.56 229.28 134.6 195.96 126.68 94.84 87.2 69.12 120.08 272.72 134.44 187.52 256.88 305.08 296.24 429.04 509.28 451.4 389.56 285.16 224.04 213.96 166.68 192.4 204.24 137.68 136.56 154.28 179.76 175.64 98.84 95.28 117.36 84.36 100.24 44.48 51.2 75.16 110.64 131.24 97.04 44.4 26.96 23.52 40.08 90.6 50.72 8.44 4.48 5.36 5.64 5.44 4.32 3.28 3.36 2.72 2 1.6 1.16 1 0.88 0.4 0 0 0 0 0 0 0 0 0 0 0 0 0 0 0 0 0 0 0 0 0 0 0 0 0 0 0 0 0 0 0 0 0 0 0 0 0 0 0 0 0 0 0 0 0 0 0 0 0 0 0 0 0 0 0 0 0 0 0 0 0 0 0 0 0 0 0 0 0 0 0 0 0 0 0 0 0 0 0 0 0 0 0 0 0 0 0 0 0 0 0 0 0 0 0 0 0 0 0 0 0 0 0 0 0 0 0 0 0 0 0 0 0 0 0 0 0 0 0 0 0 0 0 0 0 0 0 0 0 0.24 0 0 0 1.64 50.48 144.84 46.72 4.24 6.6 11.96 80.84 70.88 96.08 109.96 12.52 5.64 4.56 5.96 6.24 7.68 7.96 4.68 24.12 78.84 252.56 195 253.96 473.92 248.4 301.44 483.36 447.4 420.12 605.64 633.48 809.04 1027.12 978.04 1008.16 863.4 1054.2 684.12 396.92 245.56 242 216.72 349.56 359.2 199.76 151.56 100.96 86.56 81.24 73.8 63 52.12 41.4 37.48 28.8 82.52 169.08 246.6 283.48 282.28 232.84 181.28 186.12 222.96 242.64 279.44 284.08 287.12 295.36 253.24 279.08 303 330.12 327.88 329.36 366.44 338.56 300.92 272.32 268.96 258.72 236.32 208.32 189.12 189.24 174.72 163.6 158.72 177.08 268.88 338.52 714.68 642.12 616.88 860.76 1115.72 1437.04 1387.28 1347.4 1303.12 1299.04 1300.32 1389.28 1359.8 1018.2 858 938.04 1495.52 1459.32 1270.72 1168.84 1107.12 1193.96 1231.68 1888.64 1991.56 1457.28 1064 1471.32 1713.68 1193.56 1218.32 1292.84 1262.24 1487.48 1446.24 1238.4 917.28 853.16 923.72 1118.8 1365.52 1221.84 885.16 755.08 714.88 803.12 761.64 620.84 537.96 599.56 690.6 779.16 1030.24 731.32 417.24 451.72 555.52 723.88 881.4 1207.2 907.76 650.24 760.52 911.84 795.04 647.44 789.04 879.32 869.32 733.76 716.08 734.48 947.88 1418 1461.12 1015.64 1004.12 1054.36 1102.48 1170.52 1428.52 1354.84 1034.08 780.64 550.16 559.12 559.44 530.56 526.32 564.44 689.2 819.84 608 792.56 899.08 1227.84 1062.56 789.92 680.84 764.52 737.84 589.04 655.36 653.4 684.36 734.84 854.2 880.52 784 879.76 1020.6 910.4 847.6 853.16 767.32 833.84 1001.16 1191.68 1137.76 1010.72 922.76 769.36 697.64 576.36 631.4 695.96 759.68 847.56 883.28 880.96 941.68 934.16 965.4 983 969.84 845.68 985.2 1054.36 1319.92 1202.4 974.04 1059.12 1049.88 932 754.6 656.88 494.52 401.48 573.52 405.96 472 656.6 465.48 615.48 675.2 902.28 901.28 670.52 791.88 774.72 640.2 773.96 806.8 1056.32 1069.64 1380.4 1321 1348.44 1259.76 993.2 936.44 848.6 999.52 901 794.84 764.12 865.6 1166.84 1054.64 940.16 913.24 646.92 791.24 927.92 1035.44 1151.04 1118.2 1091.92 1177.68 1074.44 1143.96 991.68 677.8 510.2 431.88 484.6 808.88 868.76 985.32 968.2 866.6 804.12 525.48 426.52 296.76 335.04 522.28 469.56 299.12 300.24 712.88 940.24 792.84 302.52 153.52 153.56
357.16 359.08 378.04 390.92 397.08 414.36 425.8 427.8 402.64 368.92 355.92 369.36 406.44 387.84 379.52 361.72 378.2 399.96 415.36 634.24 683.28 637.76 669.04 437.84 288.72 282.96 272.6 469.64 360.84 349.24 332.04 312.64 281.96 265 257.84 253.4 251.68 263.24 277.28 257.08 231.64 222.6 193.12 182.04 182.72 187.48 178.04 198.12 185.72 180.08 152.84 174.2 151.96 177.76 264.88 416.12 459.28 448.36 426.08 414.76 465.52 582.04 571.44 494.4 610.24 604.12 627.48 509.6 287.04 223.08 267.68 235.52 256.76 230.44 115.48 203.24 390.52 391.52 196.56 220.04 192.12 141.44 208.76 324.88 353.96 309.64 284.84 338.6 281.76 233.84 204.4 190.4 179.32 197.48 133.96 155 156.28 67.68 65.04 64.64 89.52 74.76 23.68 22.8 35 56.88 68.64 41.32 25.64 22.48 17.64 17.52 15.12 10.64 11.76 10.52 12.32 12.64 11.88 9.8 4.68 3.4 4.32 2.64 1.16 1.04 0.76 0.2 0 0 0 0 0 0 0 0 0 0 0 0 0 0 0 0 0 0 0 0 0 0 0 0 0 0 0 0 0 0 0 0 0 0 0 0 0 0 0 0 0 0 0 0 0 0 0 0 0 0 0 0 0 0 0 0 0 0 0 0 0 0 0 0 0 0 0 0 0 0 0 0 0 0 0 0 0 0 0 0 0 0 0 0 0 0 0 0 0 0 0 0 0 0 0 0 0 0 0 0 0 0 0 0 0 0 0 0 0 0 0 0 0 0 0 0 0 0 0 0 0 0 0 0 0 0 0 0 0 0 0 0 0 0 0 29.76 95.56 77.6 7.2 8.28 5.56 27.48 100.84 69 86.12 56.4 4.72 4.88 4.2 4.8 5.36 7.36 5.4 5.72 56.84 249.2 283.6 253.84 473.92 343.88 420.68 458.96 747.96 484.96 690.92 873.08 862.56 1115.04 1229.52 1185.16 915.68 1096.08 869.76 510.68 286.84 166.84 183.76 320.2 414.08 218 159.64 119.8 103.36 85.36 72.8 64.2 53.48 44.88 40.2 32.6 59.68 125.84 188.64 203.68 196.68 159.52 188.64 205.36 231.88 259.72 312 322.64 300.2 275.48 237.32 246.36 270.44 305 311.24 344.36 365.64 345.28 309.24 278.48 269 261.64 237.64 212.76 211.04 187.72 182.76 173.6 164.68 180.84 295.36 536.88 814.28 743.12 804 890.68 1197.56 1393.12 1452.92 1373.2 1342.48 1377.4 1303.6 1272.28 1123.92 885.2 859.92 1003.76 1608.72 1491.2 1258.16 1171.04 1082.2 1120.36 1241.68 1495.76 1784.84 1343.12 1169.16 1552.12 1519.08 1146.88 1240.72 1360.6 1233.32 1347 1151.72 1008.68 886.16 803.88 906.04 1198.16 1264.12 1168.2 885.16 754.64 690.16 711.24 648.08 499.6 539.28 575.52 655.56 955.84 1219.6 742.12 466.84 478.64 696.64 824.6 1053.8 1270.4 1049.16 809.2 721.68 732.16 789.04 733.04 804.88 829.88 828.24 683 647.2 677.24 1026.48 1470.68 1396.96 1037.16 1186.08 953.28 1253.44 1187.12 1234.04 1364.88 1065.56 814.88 620.04 572.04 595.32 513.44 426.24 561.4 734.56 795.04 577 900.36 819.32 955.68 921.64 783.64 791.68 717.68 689.64 661.4 631.96 673.2 819.16 859.92 815.88 691.6 737.04 809.8 850.36 882.12 906.2 890.76 835.92 868.2 1064.04 1140.88 986.68 965.96 839.4 771.4 709.52 555.6 657.76 727.64 747.44 971.88 986.12 934.08 1006.76 935.72 967.24 954.96 903.48 946.92 1080.4 1031.08 1209 942.32 954.64 1196.36 1118.04 947.6 724.6 566.04 453.24 442.44 590.12 437.28 517.4 649.4 613.68 576.52 814.28 1079.24 848.24 623.2 724.28 745.72 612.96 745.6 882.4 1282.08 1201.24 1524.96 1284.68 1226.12 1041.16 1054.28 1162.6 1114.32 1102.24 907.92 864.88 905.56 756.92 928.68 1266.64 889.24 871.12 800.68 985.24 1031 1099.96 1051.92 1048.72 1046.84 1018.24 1093.96 1293.88 1069.6 956.48 721.76 515.76 318.64 606.72 689.6 701.44 617.92 743.92 760.76 683.24 535.8 403.4 732.72 344.4 459.16 348.32 470.72 722.44 795.28 960.76 655.04 158.48 125.16
364.44 368.4 352.88 378.48 389.64 409.04 416.32 426.52 408.04 383.8 368.84 374.44 414.92 430.28 401.16 380.28 377.44 392.72 463.28 660.32 689.48 652.44 721.32 486.08 298.8 290.2 263.28 342.36 361.84 348.08 329.84 344.08 291.96 272.48 274.56 273.96 248.76 243.8 253.08 262.88 237.24 230.72 214.08 194.28 171.88 168.24 164.32 162 152.04 150.36 147.2 183.52 161.96 245.84 434.64 432.64 418.68 351.36 417.04 430.08 478.04 508.04 559.36 499.76 659.92 630.32 635.88 496.56 385.32 333.36 354.04 547.28 503.72 236.2 198.6 280.92 248.8 363.32 249.04 229.12 82.6 70.92 222.84 167.48 196.92 210.88 204.68 272.36 443.84 340 261.68 208.24 184.92 179.12 149.36 92.32 85.88 62.68 61.08 62.72 90.08 71.32 40.92 33.16 32.16 32.76 34.68 28.32 24.8 20.92 27 36.64 24.2 16 19.48 16.48 12.04 12 11.12 9.84 7.48 5.92 4.84 2.84 1 0.6 0 0 0 0 0 0 0 0 0 0 0 0 0 0 0 0 0 0 0 0 0 0 0 0 0 0 0 0 0 0 0 0 0 0 0 0 0 0 0 0 0 0 0 0 0 0 0 0 0 0 0 0 0 0 0 0 0 0 0 0 0 0 0 0 0 0 0 0 0 0 0 0 0 0 0 0 0 0 0 0 0 0 0 0 0 0 0 0 0 0 0 0 0 0 0 0 0 0 0 0 0 0 0 0 0 0 0 0 0 0 0 0 0 0 0 0 0 0 0 0 0 0 0 0 0 0 0 0 0 0 0 0 0 0 0 0 0 1.6 5.64 55.2 11.52 11.08 7.68 10.64 85.68 73.4 61.4 73.16 11.4 4 3.2 3.84 4.16 7.52 5.04 5.92 40.84 210.92 213.36 175.52 394.36 460.16 524.76 478.48 799.88 655.16 718.8 902.12 768.8 815.84 904.6 1206.16 998.68 1125.76 782 514.12 366.44 161.32 138 356.8 398.96 227.88 160.96 122.4 105.4 103.92 92.16 71.44 55.68 50.04 42.32 31.36 41.84 73.68 116.28 127.52 119.8 169.48 231.32 244.04 275.16 274.24 313.8 334.16 289.88 282.4 241.68 223.04 249.92 272.76 307.44 329.32 353.32 352.24 323.6 296.4 297.96 279.64 246.88 220.28 252.84 206.24 192.28 179.04 168.2 183.76 253.28 642.32 833 893.72 944.64 734.4 1083.88 1514.12 1459.88 1411.88 1363.96 1322.76 1384.12 1308.24 997.64 877 859.04 1042.12 1488.92 1466.84 1235.92 1139.16 1045.56 1057.56 1110.2 1218.92 1527.24 1278.56 1208.36 1488.36 1193.32 1123.8 1204.6 1239.84 1213.32 1209 1209.48 1169.56 962.6 786.96 835.08 1119.2 1111.24 1130.12 878.24 867.2 663.88 596.8 489.52 460 518.96 584.52 720 1055.8 978.52 633.12 481.36 453.76 723.52 803.88 1125.52 1257.84 1042.88 759.44 731.8 862.24 898.96 978.16 998.04 1092.48 947.32 681.76 600.76 626.08 921.24 1236.12 1373.32 891.96 1147.92 835.04 939.88 1199.4 1205.56 1342.76 1336.16 1078.76 728.96 666.24 498.48 402.56 430.92 771.88 804.56 602.24 648.76 975.64 567.44 669 695.76 802.32 839.6 756.8 917.4 770.56 730.6 819.52 839.76 711.8 688.44 715.72 713.84 761.72 849.56 804.6 1003.72 1018.08 988.88 989.72 1105.44 1140.92 846.96 815.56 680.28 712.12 689.24 598 729.92 846.24 901.24 1026.08 932.16 866.92 952.08 900.96 1004.84 983.48 1108.24 1062.56 910.52 1171 1052.96 853.56 1029.64 1296.68 1040.4 847.36 631.16 484.92 533.08 679.28 617.52 572.72 530.4 750.88 565.24 693.36 779.4 1012 760.12 608.96 628.8 616.4 691.04 705.4 812.52 1305.16 1226.32 1371.96 1126.08 1076.6 922.52 966.24 1126.52 1298.76 1240.32 1172.32 973.68 870.32 723.28 957.4 979.24 671.2 835.16 1255 1160.28 1322.64 1168.48 1188.36 1192.12 1092.92 823.24 860.24 883.76 1091.12 840.24 575.72 459.44 530.12 418.28 394.92 538.24 402.04 438.68 500.04 434.52 251.16 452.72 873.2 530.08 625.88 461.96 294.36 563.4 543.56 711.52 866.08 476.96 137.44
360.72 369.8 376.04 366.44 369.88 387.6 399.68 412.92 394.96 368.52 363.32 387.64 396.28 410.88 432.48 395.72 389.92 442.08 535.68 690.24 703.28 671.24 741.8 565.8 344.8 296.16 268.6 371.08 326.56 310.8 319.24 308.4 300.44 289.24 274.36 260.56 248.12 231.92 244.12 243.52 218.8 248.72 205.12 190.72 176.68 168.56 155.12 158.56 154.32 169.48 159.88 185.6 191.12 219.92 435.12 474.48 481.56 399.16 384.04 417.16 483.6 549.88 567.52 491.64 509.52 615.88 592.48 604.32 583.28 405.92 357.12 586.96 472.48 210.16 336.2 522.72 332.24 171.88 136.52 184.4 94.48 70.36 59.76 68.68 87.6 149.96 110.44 167 169.96 247.88 254.8 229.36 173.6 141 155.56 69.72 58.16 58.6 64.24 73.28 48 39.68 36.2 33.96 32 30.08 28.64 26.04 24.68 27.24 35.16 43.96 35.68 26 23.76 21.92 16.56 14.6 14.48 11.8 8.12 5.08 2.96 1.28 0.72 0.4 0 0 0 0 0 0 0 0 0 0 0 0 0 0 0 0 0 0 0 0 0 0 0 0 0 0 0 0 0 0 0 0 0 0 0 0 0 0 0 0 0 0 0 0 0 0 0 0 0 0 0 0 0 0 0 0 0 0 0 0 0 0 0 0 0 0 0 0 0 0 0 0 0 0 0 0 0 0 0 0 0 0 0 0 0 0 0 0 0 0 0 0 0 0 0 0 0 0 0 0 0 0 0 0 0 0 0 0 0 0 0 0 0 0 0 0 0 0 0 0 0 0 0 0 0 0 0 0 0 0 0 0 0 0 0 0 0 0 0.4 55.4 84.84 13.52 7.08 8.72 8.08 60.52 53.84 52 40.96 3.76 2.8 3.32 4.4 5.48 7.72 4.56 6.52 103.72 193.48 259.04 197.92 449.24 413.56 556.16 864.88 1051.4 591.92 837.84 671.4 668.96 563.44 774.84 1212.32 1280.4 1057.6 625.08 510.68 224.56 150.4 306.4 336.16 224.12 165.48 136.76 132.88 135.32 107.08 77.04 55.48 48.56 47.04 32 30.36 70.76 96.84 101.24 136.2 173.52 207.44 240.64 265.32 275.72 321.84 305.52 261.04 241.52 235.96 224.52 243.24 267.8 304.36 299.96 328.04 361.52 338.84 312.68 299.36 280.88 257.88 239.64 225.6 211.16 200.76 181.4 170.24 191.44 335.56 603.72 767.4 844.32 775.08 636.64 1026.4 1556.12 1497.92 1391 1308.68 1307.72 1325.16 1275.4 1004.4 873.48 863.72 1126.12 1321.68 1418.84 1215.24 1084.68 1017.68 1041.44 1086.44 1175.96 1389.2 1561.32 1388.76 1156.08 1072.52 1201.44 1247.16 1214.36 1183.72 1220.52 1219.56 1220.64 1050 799.04 815.28 1032.04 1178.76 983.64 770.76 756.12 613.32 483.24 428.56 503.44 590.48 730.6 884.88 1102.64 886.32 715.28 642.92 515.64 531.28 927.56 900.56 1045.12 1041.36 881.92 1002.76 1046.88 1153.36 772.16 1100.88 1265.36 892.8 670.96 662.4 642.84 747.64 959.28 1290.28 962.08 801.56 829.16 714.16 1044.2 1165.28 1282.08 1056.56 1106.32 716.28 597.44 452.72 405.4 495.12 720.12 753.44 584.16 499.28 796.08 504.44 742.28 1029.84 1076.76 782.92 810.72 825.68 724.76 613.56 593.68 651.2 829.44 598.6 630.2 690.72 706.56 763.08 774.76 839.4 966.76 1082 1200.72 1210.4 971.68 953.72 750.92 739.8 680.36 597.48 697.16 799.76 868.64 900.8 877.08 874.92 731.92 785.04 1009.16 891.72 1000.56 1280.44 1031.24 883.32 1189.16 1018.84 864.72 1139.08 1159.2 904.96 679.12 517.6 501.64 646.2 636.04 474.04 582.12 599.32 643.72 651.4 795.6 899.64 886.84 712.68 554.68 591.16 676 626.32 709 993.48 1300.12 1474.12 1277.04 1087.08 977.72 893.56 855.96 1098.64 1200.08 1451.4 1530.92 1104.32 955.04 727.08 713.16 641.64 648.28 1021.12 1406.84 1247.68 1085.64 1121.4 1107.12 1303.64 1259.16 880.16 743.6 728.04 744.72 732.2 786.16 714.28 397.76 628 619.16 663.24 764.36 696.36 507.76 731.92 617.32 703.72 970.08 680.2 377.48 589.44 270.12 924.76 614.2 288.2 663.16 824.88 561.12
388.92 392.44 399.84 407.36 394.88 401.72 406.44 420.12 411.36 385.88 386.44 396.88 397.56 434 484.04 467.28 421.08 422.88 598.64 695.72 714.04 626.36 801.28 632.16 344.04 284.48 273.52 328.88 314.36 322.56 365.72 286.36 288.76 281.72 267.08 255.4 279.24 278.64 246.24 255.8 205.56 192.72 188.12 170.28 165.8 167.84 159.68 160.68 161.2 161 169.76 179.08 265.24 359.88 454 553.24 561.76 508.36 541.84 538.12 542.36 546.56 594.88 530.24 528.56 511.76 545.76 578.56 589.32 522.88 419.52 385.68 421.64 413.04 539.8 559.48 502.32 264.88 194.88 191.64 206.92 129 81.32 71.48 105.28 116.56 83.64 100.76 148.12 126.48 138.24 132.52 77.52 111.92 63.48 40.28 44.16 47.76 52.8 77.16 58.8 78.56 56.16 34.92 31.88 30 29.32 30.28 31.16 29.92 28.68 29.92 27.92 25.8 23.84 20.96 17.4 14.36 11 7.48 5.76 3.88 2.04 1 0.04 0.64 0.16 0 0 0 0 0 0 0 0 0 0 0 0 0 0 0 0 0 0 0 0 0 0 0 0 0 0 0 0 0 0 0 0 0 0 0 0 0 0 0 0 0 0 0 0 0 0 0 0 0 0 0 0 0 0 0 0 0 0 0 0 0 0 0 0 0 0 0 0 0 0 0 0 0 0 0 0 0 0 0 0 0 0 0 0 0 0 0 0 0 0 0 0 0 0 0 0 0 0 0 0 0 0 0 0 0 0 0 0 0 0 0 0 0 0 0 0 0 0 0 0 0 0 0 0 0 0 0 0 0 0 0 0 0 0 0 0 0 0 4.2 95.24 13.16 3.88 14.36 8.12 30.64 39.96 72.92 38.6 3.28 4.16 3.32 4.56 5.76 3.96 4.44 7.44 67.24 214.16 200.96 160.04 282.04 278.84 399.76 587.36 853.72 451.8 737.64 497.28 521.72 419.52 701.44 1147 1180.48 935.56 601.64 745.04 265.72 120.76 152.4 277.72 239.04 176.88 146.76 142.32 117.04 101.36 75.12 50.84 49.92 45 44.64 32.8 49.48 106.76 157.64 147.24 163.64 192.56 218.04 238.88 276.12 327.96 286.68 230.92 210.6 207.2 235.2 209.28 233.56 258.24 283.2 319.6 349.48 358.92 323.76 302.24 279.12 264.44 246.92 246.32 217.68 216.44 191.64 178.04 194.4 229.36 357.2 479.8 960.64 938.32 702.08 996.76 1480.24 1426.52 1371.72 1284.16 1288.28 1393.84 1343.8 1047.8 876.84 879.4 965.76 1218.4 1377.68 1228.64 1064 993 1049.96 1102.48 1147.6 1393.88 1944.24 1926.44 1024.6 1220.68 1360.04 1263.16 1182.96 1128.36 1202.36 1222.04 1198.92 1102.08 902.04 812.68 978.44 982.56 884.52 593.92 561.76 477.72 443.76 549.72 653.32 782.96 944.16 997.36 1091.2 765.96 663.52 538.6 642.96 423.32 630.36 819.08 1197.68 1054.68 818.76 896.12 1054.36 1308.64 1157.16 1065.96 873 927.28 853.6 679.4 608.24 659.76 859 1237.64 1147.96 707.72 681.84 656.08 746.72 966.84 975.28 763.4 659.76 607.64 474.24 376.84 368.72 393.16 417.12 513.76 471.8 751.44 678.12 453.36 563.64 803.92 678.12 581.76 720.24 827.68 552.96 468 522.88 679.64 592.76 680.04 715.12 700.88 635.36 691.04 864.72 1008.92 1105.48 1227.72 1056.52 1118.68 1142.44 671.96 687.8 653.04 642.68 638.12 705.56 761.44 785.8 850.4 828.6 798.44 685.52 773.32 746.96 793.52 1104.16 1058.72 942 782.64 946.44 867.72 892.76 1129 1000.48 761.04 565.28 442.12 610.96 657.36 506.16 426 435 725.04 716.92 872.4 877.12 1162.2 1155.04 862.4 587.24 615.64 732.4 756.92 778.88 919.84 1152.72 1255.4 1337.24 1282.56 1087.8 952.04 870.88 1062.32 1234.88 1537.96 1518.8 1250.72 1008.92 790.28 980.96 816.64 933.12 1169.28 1470.68 1422 1208.8 1051.88 1058.04 1109.36 1162.08 921.48 848.92 748.56 801.16 806.36 881.72 730.92 425.4 730 968.72 955.96 1318.84 986.76 820.12 797 437.32 379.92 325.52 404.56 336.84 486.28 205.04 455.88 913.64 365.28 337.92 520.6 558.16
398.84 408.44 410.32 423 398.04 409.56 416.44 416.8 433 434.92 421.72 424.08 402.24 461.64 575.08 486.68 433.24 424.56 795.8 759.6 752.92 579.32 630.52 495.72 379.12 320.08 265.28 337.6 285.72 365.12 366.32 256.32 271.52 264.72 266.08 275.08 269.32 249.12 235.52 265.52 205.2 200.08 182.44 181.12 163.04 163.48 175.28 169.88 186.8 320.64 204.28 218.56 304 427.88 390.76 477.72 628.28 705.12 697.96 665.44 655.32 718.84 712.68 586.4 633.16 591.6 581.6 563.2 578.88 648.28 584.08 232.64 200.92 216.76 240.96 218.88 154.88 229 155.52 104.72 145.4 229.88 146.56 110.68 89.08 77.08 80.72 95.76 83.36 98.52 83.76 79.92 75.76 80 57.08 51 47.92 58.76 100.48 87.48 92.68 137.32 97.28 38.48 29.4 28.52 27.24 30.16 29.52 28.76 27.28 25.32 22.44 20.24 18.6 15.72 13.96 11.36 8.6 6.32 4.56 3.72 2.32 1 0.24 0.6 0.08 0 0 0 0 0 0 0 0 0 0 0 0 0 0 0 0 0 0 0 0 0 0 0 0 0 0 0 0 0 0 0 0 0 0 0 0 0 0 0 0 0 0 0 0 0 0 0 0 0 0 0 0 0 0 0 0 0 0 0 0 0 0 0 0 0 0 0 0 0 0 0 0 0 0 0 0 0 0 0 0 0 0 0 0 0 0 0 0 0 0 0 0 0 0 0 0 0 0 0 0 0 0 0 0 0 0 0 0 0 0 0 0 0 0 0 0 0 0 0 0 0 0 0 0 0 0 0 0 0 0 0 0 0 0 0 0 0 0 0 59.64 50.28 3.48 17.44 16.84 9 12.28 22.84 19.48 10.68 3.4 4.68 4.2 3.96 5.28 4.56 8.56 21.84 87.84 137.6 164.92 283.92 432.28 524.2 582.6 809.52 516.8 530.52 408.08 347.64 352.76 569.56 881.6 1027.08 1213.96 907.12 564.88 496.12 222.04 121.88 262.6 195.52 154.56 151.56 163.72 138.96 86.88 60.28 43.76 45.76 49.44 47.72 43.64 38.28 73.04 145.12 169.84 190.64 189.84 217.32 222.32 258.8 294.88 288.16 231.16 196.24 181.52 202.68 209.56 209.28 289.68 342.76 335.68 342.2 388.88 357.24 324.84 305.56 287.24 282.64 284.08 240.72 234.32 202.8 179.96 186.96 214.16 410.6 481.28 939.28 873 680.56 782.36 1295.96 1319.88 1346.96 1322.28 1293.6 1451.96 1386.8 1203.24 938.72 886.36 951.48 1105.8 1297.2 1207.48 1083.68 981.6 1030.52 1127.84 1204.76 1251.2 1750.28 1599.88 967.84 1224.64 1260.84 1195.56 1121.28 1062.32 1122.6 1063.52 1266.36 1334.04 944.12 695.52 789.68 555.76 488.04 427.32 475.6 566.6 637.44 617.08 724.76 936.92 996.32 938.64 972.52 959.32 854.6 601.08 590.68 477.08 1179.68 1215.72 1193.48 1060.28 780.36 823.36 959.52 944.88 860.76 987.04 989.8 891.24 759.4 700.84 836.64 839.56 734.44 1133.84 1647.52 934 801.4 712.08 638.92 644.16 644 622.96 627.32 659.08 503.04 369.32 367.92 367.2 372.36 410.16 435.48 701.6 400.76 378.68 451.12 410.92 635.92 506.84 435.16 477.36 485.48 420.2 500.56 599 761.08 697.44 595.44 607.44 780.44 836.44 943.56 1095.16 1128.24 911.88 842.72 730 818.96 805.68 615.92 773.64 836.24 840.24 902.56 920.52 803.36 828.4 783.68 730.56 635.64 699.56 813.28 919.52 1152.6 1120.64 1021.36 809.84 836.16 969.04 1004.92 1169.64 909.88 638.4 568.04 587.4 554.48 547.36 471.72 565 757.88 615.4 590.76 715.6 1100.28 875.2 903.96 670.64 578.56 840.52 962.92 863.08 744.16 887.36 881.08 955.6 1172.44 1390.04 1172.32 1049.88 956.96 1127.24 1282.56 1310.92 1228.16 1294.04 1208.32 1136.64 1101.76 777.36 1005.92 1162.64 1419.68 1517.72 1418.36 1286.64 1035.16 1101.92 1073.76 995.28 996.12 881.68 943.28 865.44 736.36 663.32 564.04 793.6 1358.8 1171.76 1270.84 1078.04 955.68 821.72 809.96 624.12 311.68 284.76 298.2 466.44 410.44 231.96 337.92 379.76 211.56 425.16 266.8
404.04 434.16 431.96 435.04 427.24 425.68 430.84 433.56 456.48 442.08 437.76 448.48 418.96 502.44 585.04 579.28 443.72 448.8 634.16 756.84 796.4 703.56 719.92 477.76 508.6 328.6 253.92 282.08 271.88 246.6 241 245.48 245.32 240.44 245.84 240.36 246.64 237.04 237.24 226.48 260.68 194.56 178.84 165.28 163.84 175.48 180.76 209.52 198.6 282.16 192.04 309.72 338.32 431.32 459.28 546.64 614.12 647.72 684.56 717.4 719.88 730.72 723.56 619.52 564.04 679.52 663.6 593.84 601.2 530.36 324.24 294.16 294.8 248.64 272.44 536.76 252.04 152.56 148.32 125.36 145 126.6 95.56 91.64 116.84 104.36 89.68 94.04 82.6 67.92 65.92 75.44 91.64 86 64.64 50.04 53.96 91.08 146.52 123.56 72.68 106.44 107.88 39.76 27.16 26.44 24.88 24.92 26.08 26.12 25.76 24 21.72 20 17.6 15.24 12.88 10.44 7.84 5.16 3.28 1.96 1.28 1 1 0.48 0.04 0 0 0 0 0 0 0 0 0 0 0 0 0 0 0 0 0 0 0 0 0 0 0 0 0 0 0 0 0 0 0 0 0 0 0 0 0 0 0 0 0 0 0 0 0 0 0 0 0 0 0 0 0 0 0 0 0 0 0 0 0 0 0 0 0 0 0 0 0 0 0 0 0 0 0 0 0 0 0 0 0 0 0 0 0 0 0 0 0 0 0 0 0 0 0 0 0 0 0 0 0 0 0 0 0 0 0 0 0 0 0 0 0 0 0 0 0 0 0 0 0 0 0 0 0 0 0 0 0 0 0 0 0 0 0 0 0 0 0 6.2 79.84 1.12 6.48 18.88 7.28 11.24 13.12 18.92 4.88 3.32 4.32 4.6 4.32 8.04 4.72 24.16 20.56 70.28 81.36 120 203.8 309.72 409.08 573 711.2 588.44 347.56 409.92 279.76 479.04 694.08 597.64 886.84 1171 808.32 602.04 869.72 395.36 158.04 180.8 141.88 113.28 116.64 113.6 86.48 61.32 47.64 43.08 45.32 51.76 44.64 40.84 31.64 48.4 133.28 204.04 164.92 157.8 186.24 200.84 250.4 283.52 280.84 224.24 183.4 170.52 205.4 230.68 244.2 265.64 338.6 379.76 399.28 411.16 386.56 359.28 324.08 296.88 289.32 323.76 264.64 252.96 204.04 176.72 176.76 202.36 399.92 765.84 871.24 997.08 801.92 560.28 967.52 1198.56 1382.12 1350.84 1324.4 1392.32 1494.64 1322.96 981.88 873.92 1015.8 1004 1394.64 1284.96 1068.6 947.68 986.88 1111.88 1217.84 1264.68 1597.32 1367.28 1074.76 1219.48 1216.04 1206 1198.36 1097.04 947.76 927.88 1271.12 1297.76 876.8 562.4 464.32 341.08 321.32 414.8 627.12 690.52 762.6 735.64 918.76 906.92 784.48 787.72 825.12 970.84 987.64 1164.04 782.68 589.24 1229.96 1184.4 1188.16 862.88 683.36 660.8 878.88 968.28 982.88 1022.48 914.04 881.92 958.96 1084.84 976.12 746.2 848.24 1100.32 1306.4 954.36 978.76 1096 917.44 896.8 741.88 906.4 851.6 939.56 545.92 369.76 368.56 374.36 411.04 383.6 472.64 486.44 408.32 380.32 551.28 483.96 417.64 522.44 622.48 594.36 535.76 521.32 604.36 589.52 578.32 600.28 697.96 890.52 876.44 825.08 915.72 1214.2 1301.84 1033 879 937.76 673.2 642.84 738.8 751.76 749.72 751.68 788.2 862.8 862.88 839.56 809.88 671.24 650.84 807.52 1348.28 1251.16 1152.48 1025.8 1015.04 860.96 870.68 1028.68 1081.6 1007.56 765.4 561.6 512.32 478.4 475.48 454.72 526.56 629.52 798 780.08 736.92 972.56 953.64 844.72 590.96 592.36 676.92 790.88 1020.8 886 723.12 779.8 934.28 1086.04 1335.16 1436.72 1277.08 1116.36 1114.36 1102.2 1155.32 1133.44 1027.4 1078.44 1298 1378.56 1011.32 1096.76 1313.44 1311.64 1292 1360.08 1266.56 1233.16 1084.4 1097.76 1092.92 1112.28 1000.2 889.72 791 803.08 707.12 749.96 778.92 761.04 961.64 921.96 1136.28 918.72 938.12 753.08 732.64 670.32 515.72 324.56 330.56 303.88 564.36 346.88 264.52 244.84 185.32 104.36 175.28
394.52 405.52 416.76 419.64 432.44 420.04 420.92 428.32 444.28 434.24 446.24 451.76 431.8 455.72 506.08 520.8 461.76 461.76 674.68 846.92 864.36 896.4 714.92 467.44 422.36 280.52 250.6 246.36 254.2 241.56 227.2 230.92 228.64 219.36 237.76 228.24 223.76 219.24 217.44 208.6 251.64 181.8 176.64 157.04 160.48 161.28 179.68 193.8 288.56 397.4 316.2 375.52 492.76 535.68 536.24 587.44 701.76 688.76 704.72 719.28 738.08 713.92 739.28 723.2 576.8 608.8 773.88 665.08 543.76 350.68 255.6 415.88 404.28 283.76 291.12 525.64 323.04 183.12 151.44 112.96 121.04 98.12 96.48 190.4 199.64 93.76 68.92 98.92 105.76 80.04 97.48 90.96 137.36 137.24 101.2 59.76 64.64 115.68 126.84 88.08 71.52 76.16 71.36 32.52 22.88 22.24 22.68 21.12 20.48 21.04 23.16 23.84 21.68 19.64 17.56 15.44 12.64 10.08 6.92 3.84 1.96 1.12 0.96 0.88 0.56 0.04 0 0 0 0 0 0 0 0 0 0 0 0 0 0 0 0 0 0 0 0 0 0 0 0 0 0 0 0 0 0 0 0 0 0 0 0 0 0 0 0 0 0 0 0 0 0 0 0 0 0 0 0 0 0 0 0 0 0 0 0 0 0 0 0 0 0 0 0 0 0 0 0 0 0 0 0 0 0 0 0 0 0 0 0 0 0 0 0 0 0 0 0 0 0 0 0 0 0 0 0 0 0 0 0 0 0 0 0 0 0 0 0 0 0 0 0 0 0 0 0 0 0 0 0 0 0 0 0 0 0 0 0 0 0 0 0 0 0 0 0 0.12 23.32 0 5.96 8.64 5.04 8.16 9.92 11.72 2.44 4.84 5.8 4.64 3.4 4.48 5.44 14.28 24.56 66.36 118.36 98.52 184.92 262.72 289.92 378.96 508.88 408.12 417.56 351.76 212.52 312.72 630.2 710.76 627.6 858.4 911.92 851.52 1298.96 580 213.6 218.44 193.08 117.96 82.48 78.16 66.48 64 63.24 54.96 47.88 50.36 41.76 38.84 31.84 34.36 121.96 173.8 136.08 140.44 168.08 202.24 226.6 262.92 255.16 211.68 175.6 158.52 184 196.84 230.68 277.48 362.36 408.16 409 403.68 358.4 338.8 319.56 291.4 281.68 339 309.52 263.88 206.04 176.48 171.16 197.92 317.68 554.64 677.96 1068.36 882.44 575.12 883.56 1186.88 1381.28 1396.52 1387.28 1427.28 1489.76 1471.92 1051.76 882.32 1075.88 1095.92 1391.16 1274.76 1020.16 913.92 946.28 1073.32 1182.12 1224.72 1468.8 1314.76 1100.36 1181.92 1185.92 1240.88 1208.92 1036.44 844.96 831.96 1018.44 1000.68 690.76 399.84 311.04 336.56 558.08 930 759.36 789.36 770.96 761.12 814.8 712.8 699.08 786 888.8 933.84 1005.96 1146.96 896.76 486.24 794.28 1007.16 1032.72 855.88 620.48 636.68 914.96 1012.96 902.28 955.8 958.44 1059.72 1228 1281.36 1039.4 772.96 799.16 1031.52 866.76 966.2 864.12 1004.88 1031.16 998.16 989.48 886.2 893.08 952.04 459.28 370.56 368.76 375.12 415.76 387.92 392.8 386.28 368.12 427.2 671.12 814.8 496.28 492.52 579.16 508.88 415.6 476.32 678.68 720.68 670.36 734.8 752.24 841.44 665.64 685.12 956.32 1238.16 1045.6 1024.04 1008.96 918.64 640 610.6 601.88 627.04 696.2 851.36 1069.96 1078.92 942.4 829.6 685.36 608.24 787.88 1180.68 1511.68 1523.92 1309.08 1087.24 860.92 699.2 890 899.72 760.12 781.36 573.28 500 460.32 515.36 775.44 680.24 450.52 572.32 767.28 890.04 901.44 971 820.56 639.16 701.28 802.56 875.08 936.44 922.2 749.56 707.08 709.32 922.96 1247.12 1365.76 1477.32 1466.68 1313.28 1202.4 1161.48 972.6 1070.32 981.76 949.12 1186.92 1305.56 1218.92 1357.36 1475.24 1444.76 1452.6 1406.16 1266.04 1155.84 1138.2 1242.04 1205.76 1157.96 1067.28 1073.96 1015.48 1005.96 935.72 995.76 833.68 653.88 641 609.44 641.32 573.12 542.28 426.88 770.16 539.8 528.04 597.68 506.48 331.68 396.72 356.84 560.52 232.28 152.72 180.44 108.84
399.28 405.76 405.44 425.88 434.36 417.44 423.68 437 460.72 444.44 465.48 462.08 457.2 473.24 530.88 544.6 496.12 525.36 627.76 711.72 774.12 864.12 635.64 454.08 337.08 280.88 259.36 280.32 243.68 257.48 222.56 217.16 226.48 216.88 214.64 211.88 213.16 201.92 202.16 257.36 172.8 185.16 205.28 187.84 177.72 165.96 200.92 218.48 295.04 351.16 506.24 579.04 648.92 652.8 625.68 559.84 565.68 572.8 685.64 713.56 722.32 740.56 740.12 702.92 606 598.32 617.08 665.92 516.64 334.84 310.44 428.56 346.24 498.64 493.12 307.92 344.6 199.4 159.04 228.2 221.76 144.72 138.72 233.88 278.08 238.92 108.32 75.6 108.96 84.16 83.72 76.88 101.96 114.16 109.68 71.64 71.44 84.44 80.36 64.64 63.32 61.64 45.36 27.24 20.32 17.76 17.56 17.56 18.04 16.52 16.64 20.48 21.4 19.12 17.72 15.8 13.04 9.52 5.84 3.36 1.16 1 0.88 0.44 0 0 0 0 0 0 0 0 0 0 0 0 0 0 0 0 0 0 0 0 0 0 0 0 0 0 0 0 0 0 0 0 0 0 0 0 0 0 0 0 0 0 0 0 0 0 0 0 0 0 0 0 0 0 0 0 0 0 0 0 0 0 0 0 0 0 0 0 0 0 0 0 0 0 0 0 0 0 0 0 0 0 0 0 0 0 0 0 0 0 0 0 0 0 0 0 0 0 0 0 0 0 0 0 0 0 0 0 0 0 0 0 0 0 0 0 0 0 0 0 0 0 0 0 0 0 0 0 0 0 0 0 0 0 0 0 0 0 0 0 0 0 0 0.96 2.36 4 4.44 8.48 10.44 10.52 14.2 3.88 4.92 5.36 5.16 4.24 2.68 24.88 27.36 21.28 53.92 139.28 217.8 115.44 156.36 250.6 303.36 436.16 245.08 267.24 257.4 175.44 280.64 551.84 449.8 476.2 595.72 1169.12 1205.08 1115.28 763.76 583.92 157.8 270.16 190.28 107.8 208.64 105.2 108.68 94.2 69.96 50.52 45.88 41.44 41.04 36.36 34.28 91.16 111.48 159.88 146.04 163.2 186.24 194.36 230.88 239.72 208.68 170.16 152.92 164.48 194.96 220.52 288.2 346.48 382.04 402.96 429.04 360.92 320.76 293.36 275.04 254.84 337.92 374.84 282.48 214.72 169.32 158.16 182.12 224.04 261.04 569.84 985.76 881.92 754.76 727.08 1096.76 1345.44 1390.48 1362.52 1437.84 1474.84 1466.92 1167 903.16 1047.2 1152.8 1449.8 1318.56 1006.12 889.92 917.84 1096.48 1150.6 1267.24 1487.48 1199.72 1083.92 1250.88 1181.96 1212.64 1082.48 860.24 684.8 626.4 728.32 739.96 433.76 309.8 381.96 689.92 1382.68 1413.92 910.12 905.04 749.88 797.2 807.48 702.08 765.68 777.28 774.84 913.12 1024.96 1138.04 906.92 689.16 384.6 648.8 886.92 752.08 564.84 551.8 662.64 807.72 853.12 918.64 990.32 1185.44 1337.56 1303.4 829.16 645.6 814.12 879.64 773.68 1046 926.48 756.76 816.56 765.2 800.08 671.84 678.04 663 430.2 370.72 369.4 378.44 386.04 377.52 380.52 363 407.32 446.96 884.52 765.64 433.6 386.96 433.48 427 446.52 415.56 594.64 613.44 522.24 606.48 537.08 521.96 535.32 686.28 1043.24 1219.76 997.16 827.68 697.76 588.84 551.24 706.32 733.44 748.12 884.08 996.84 1185.84 1079.4 799.36 620.24 634.44 809.44 935.36 1313.8 1451.12 1456 1387.68 1076.92 820.52 734.68 943.52 784 600.68 708.88 637.6 510.52 572.12 475.52 444.76 537.04 697.24 858.4 761.88 889.12 930.16 944.28 709.84 561.24 947.12 1055.84 1046.64 1053.56 1040.72 714.6 627.24 605.44 895.36 1342.56 1690.6 1293.56 1310.68 1467.44 1310.16 1127.68 1100.04 1047.32 1044.32 878 967.68 1123.04 1209.56 1307.12 1560.88 1637.24 1549.64 1475.44 1481.2 1458.6 1243.08 1230.04 1296.44 1265.04 1010.28 1031 1331.84 1101.8 925.56 905.96 845.36 703.28 623.56 554.08 547.76 473.72 567.04 369.2 413.44 377.84 420.72 414 302.36 308.48 325.24 365.24 379.24 265.48 136.44 368.84 107.2
476.08 434.28 468.4 568.4 444.88 433.2 444.88 478.12 541.32 460.48 489.04 484.12 481.84 505.76 545.2 542.56 590.76 627.8 474.04 609.48 831.72 825.56 420.04 346.6 298.36 302.88 281.48 416.32 233.52 268.2 269.72 218.72 216.88 211.72 202.72 198 196.36 191.6 187.48 185.08 170.92 210.72 267.88 211.36 186.08 172.04 184.32 256.52 291.08 334.96 547.76 678.6 728.08 713.04 584 564.32 544.72 549.6 602.44 670.88 771.6 770.52 746.44 720.04 634.24 747.96 648.56 638 615.32 427.64 404.6 277.2 235.24 398.08 506.4 294.12 303.72 225.84 233.48 243.8 229.04 195.28 246.48 179.68 272.68 181.4 119.36 81.96 104.76 132.4 83.8 73.68 79.68 86.88 81.04 73.84 79.16 70.36 57.64 49.4 41 34.96 27.48 22.44 21.52 16.84 13.68 13.28 13.16 12.4 12.04 13.6 17.76 17.68 16.64 16.08 13.76 10.76 3.64 1.2 0.88 0.48 0 0 0 0 0 0 0 0 0 0 0 0 0 0 0 0 0 0 0 0 0 0 0 0 0 0 0 0 0 0 0 0 0 0 0 0 0 0 0 0 0 0 0 0 0 0 0 0 0 0 0 0 0 0 0 0 0 0 0 0 0 0 0 0 0 0 0 0 0 0 0 0 0 0 0 0 0 0 0 0 0 0 0 0 0 0 0 0 0 0 0 0 0 0 0 0 0 0 0 0 0 0 0 0 0 0 0 0 0 0 0 0 0 0 0 0 0 0 0 0 0 0 0 0 0 0 0 0 0 0 0 0 0 0 0 0 0 0 0 0 0 0 0 0 0 0 0 3.16 7.28 8.04 8.32 7.56 1.8 11.72 5.72 6.36 6.28 5.36 4.32 40.08 58.76 27.56 25.96 176.76 278.76 209.28 122.2 326.76 302.68 527.16 497.6 347.52 150.56 219 320.56 471.52 414.6 447.92 375.32 905.48 991.28 711.36 890.76 580.6 184 254.16 297.8 153.04 163.04 130.2 122.84 110.8 78.84 53.4 48.68 42.2 41.52 34.36 37.24 89.36 148.72 198.12 205.44 177.32 158.4 156.6 184.96 203 186.2 155.68 139.16 142.76 163.28 193 278.88 292.08 374.12 411.08 377.8 353.52 307.28 269.16 257.96 242.56 266.84 370.96 270.8 231.8 169.72 147.2 163.48 184.16 241.92 621.36 872.6 602.04 638.52 503.88 953.24 1260.24 1489.32 1413.12 1435.12 1411.72 1381.88 1215.56 968.48 1181.24 1057.12 1410.48 1533.76 1130.36 885.84 858.28 1107.76 1199.96 1235.48 1437.6 1215.48 1051.8 1508.72 1288.64 1177.88 896.6 649.24 557.4 584.6 598.36 380.68 264.88 362.64 501.4 1041.88 1366.64 1185.64 911.8 766.24 691.04 897.2 810.36 733.04 816.6 935.92 920.16 852.96 969.76 1087.8 1131.92 735 675.36 832.96 555.08 616.2 634.52 625.84 641 631.12 657.64 918.84 1177.88 1350.92 1402.68 1023.36 743.92 640.72 843.36 760.6 673.48 924.76 1004.64 1009.68 758.88 594.76 578.28 575.04 502.04 444.76 389.84 375.92 377.6 394.8 389.84 389.44 373.2 372.92 489.72 544.52 855.52 552.24 463.44 364.4 349.96 568.36 501.72 387.08 559.84 672.76 476.52 510.16 500.72 831.56 756.52 535.4 609.12 820.92 894.4 695.52 594.24 616.88 723.16 826.2 954.88 974.2 968.36 893 841.24 886.76 701.08 671.2 915.08 991.64 1124.24 1298.84 1215.92 1303.28 1047.12 910.56 684.28 822.24 1027.8 681 710.24 1136.64 533.32 655.92 697.4 496.56 516.72 644.32 861.68 847.44 1012.76 901.92 825.04 1005 1003.8 554.84 948.36 972.08 878.36 818.96 1016.2 776.32 629.4 632.64 762.04 1111.72 1420.72 1236.48 1155.2 1481.16 1373.6 1191.48 1491.4 1211.6 994.04 892.2 886 997.56 1192.68 1247.04 1433.48 1432.8 1368.52 1378.8 1382.64 1346.72 1278.48 1195.64 1182.12 1075.52 895.76 940 1022.64 1223.16 1191.24 955.04 771.08 714.16 781.76 686.44 815.16 864.16 911.56 518.8 505 540.88 443.04 246.52 242.28 691.48 642.6 345 229.16 333.16 284.16 221.72 203.6
561.88 543.32 461.6 599.6 520.68 480.88 541.24 524.88 508.76 517.76 522.12 545.64 503.36 526.08 610.2 528.28 454.2 495.84 453.04 625.28 808.72 610.2 395.6 421.2 314.56 275.6 273.84 368.44 266.72 281.32 292.68 238 218.4 201.96 200.64 199.76 207.96 195.56 184.52 174.76 203.12 232.24 247.12 212.24 191.76 179.2 194.08 223.96 297.44 296.68 522.8 680.2 675.36 614.6 620.88 632.92 570.6 571.72 571.92 641.68 739.84 808.12 782.96 677.96 660.56 689.2 641.92 741.56 705.88 558 427.96 362.84 282.24 300.56 522.4 391.08 179.12 190.28 213.4 304.68 319.52 125.92 136.44 158.16 170.48 144.36 103.36 75.6 81.84 99.16 80 71.52 87.4 114.96 106.32 92.6 111.92 75.16 53.12 39.8 28.88 23.36 22.16 21.56 21.4 18.52 11.68 10 8.92 9.08 9.12 9.24 12.16 14.64 13.76 13.28 11.56 8.56 2.84 0.76 0.04 0 0 0 0 0 0 0 0 0 0 0 0 0 0 0 0 0 0 0 0 0 0 0 0 0 0 0 0 0 0 0 0 0 0 0 0 0 0 0 0 0 0 0 0 0 0 0 0 0 0 0 0 0 0 0 0 0 0 0 0 0 0 0 0 0 0 0 0 0 0 0 0 0 0 0 0 0 0 0 0 0 0 0 0 0 0 0 0 0 0 0 0 0 0 0 0 0 0 0 0 0 0 0 0 0 0 0 0 0 0 0 0 0 0 0 0 0 0 0 0 0 0 0 0 0 0 0 0 0 0 0 0 0 0 0 0 0 0 0 0 0 0 0 0 0 0 0 0 4.08 6.6 6.84 5 1.44 1.48 8.44 4.16 4.08 4.2 5.44 4.48 4.4 68.48 32.96 13.84 118.48 254 296.32 153.92 147.72 226.16 415.36 315.96 243.52 118.64 218.12 321.52 239.96 445.2 244.4 429.32 747.36 1035.56 643.44 691.12 478.56 343.2 225.76 318.44 286 177.48 155.2 126.12 94.48 68.12 53.08 51.16 52.68 56.4 44.76 36.84 80.88 138.44 207.12 237.88 176.48 143.56 131.08 143.08 167.08 158.44 142.68 132.08 136.16 146.4 158.36 195.96 221.2 348.76 426.76 312.32 357.92 311.92 271.72 245.56 230.76 219.16 345.92 278 228.08 163.96 142.44 150.28 174.84 260.52 563.28 855 581.52 444.08 631.68 679.32 1203.4 1343.72 1478.52 1438.08 1489.04 1326.76 1218.36 1012.56 1135.8 1164.36 1222.56 1501.44 1090.04 889.16 855.56 1022.12 1213.52 1170.72 1290 1077.76 1181.28 1456.2 1398.6 1251.72 901.52 620.48 532.04 611.24 489.88 309.64 339 371.24 735.48 1277.4 1293.92 1298.28 973.64 782.56 748.48 773.4 749.68 748.08 834.12 998.72 920.24 836.88 723.88 821.72 1167.04 914.28 587.56 1116.88 887.48 1053.04 623.04 717.56 544.88 625 802.48 1077.32 1174.56 1377.36 1302.32 1062.16 965.32 836.2 584.64 582.28 650.36 896.4 1179.68 1376.52 1073.92 774.12 685.16 610.68 473.72 414.32 396.16 391.36 398.76 380.24 381.2 378.04 391.08 454.96 508.56 510.68 530.84 531.2 389.44 356.16 400.56 508.16 398.92 418.44 729.28 884.92 537.28 406.88 478.16 700.16 801.36 838.84 658.64 586.72 557.8 532.76 581 635.28 779.88 808.96 860.4 947.6 953.08 621.68 629.52 678.2 705.24 1013.92 1015.6 931.04 1099.28 1201.48 1213.88 1051.88 948.64 686.68 660.24 854.4 637.92 790.04 1034.2 716.72 685.24 678.64 538.04 487.28 594.68 603.28 816.8 1103.04 845.12 751.12 698.24 660.36 699.28 625 860.48 870.28 681.08 774.76 1062.88 732.88 601.08 616.88 718.24 864.44 982.08 1244.96 1154.6 1335.68 1340.2 1218.88 1497.32 1469.64 958 855.88 820.32 906.44 1040.88 1091.88 1323.4 1341.48 1234.64 1280.08 1382.36 1616.44 1486.4 1272.64 1149.36 971.52 938.12 833.4 963.6 1177.32 1202.28 954.32 942.28 1042.72 916.48 1052.36 1105.92 954.64 795.56 1005.84 986.76 555.56 345.92 363.56 481.16 435.24 571.56 433.6 374 246.84 142.52 200.52 398.64
449.12 634.24 653.6 631.88 710.28 726.08 616.8 593.92 567.28 587.04 543.36 544.88 507.6 510.2 533.12 553.24 546.32 447.64 390.68 471.68 492.64 372.72 351.64 282.2 267.72 262.28 252.44 267.08 486.76 413.88 300.88 246.92 218.88 213.16 199.24 196.12 192.04 186.32 212.6 183.88 193.28 207.52 216.72 202.84 195.04 193.08 219.2 362.8 268.12 278.76 381.88 450.96 418.16 602.8 658.12 668.24 609.12 538.24 666.36 601.56 706.4 711.68 789.52 779.88 715.08 759.68 695.48 687.52 692.08 533.88 242.6 272.52 213.2 226.28 451.36 284.72 132.28 176.04 245.16 164.48 140.48 144.2 113.64 197.04 177.72 99.72 73.08 98.08 163.08 171 131.32 93.96 107.32 152.88 147.08 109.48 130.6 105.56 90.52 27.84 23.68 21.08 24.76 21.64 19.44 19.2 14.24 9.08 7.88 7.4 7.44 8.48 7.76 9.24 10.84 8.48 6.68 3.4 1.04 0.04 0 0 0 0 0 0 0 0 0 0 0 0 0 0 0 0 0 0 0 0 0 0 0 0 0 0 0 0 0 0 0 0 0 0 0 0 0 0 0 0 0 0 0 0 0 0 0 0 0 0 0 0 0 0 0 0 0 0 0 0 0 0 0 0 0 0 0 0 0 0 0 0 0 0 0 0 0 0 0 0 0 0 0 0 0 0 0 0 0 0 0 0 0 0 0 0 0 0 0 0 0 0 0 0 0 0 0 0 0 0 0 0 0 0 0 0 0 0 0 0 0 0 0 0 0 0 0 0 0 0 0 0 0 0 0 0 0 0 0 0 0 0 0 0 0 0 0 0 0 0 2.84 7.72 3.2 0 1.68 1.68 2.6 3.64 3.32 3.32 3.2 4.12 36.6 85.24 9.52 29.16 204.04 197.48 149.88 171.44 221.56 306.04 177.76 425.68 212.72 147.56 188.48 109.48 396.76 227.8 340.04 557.32 833.32 796.88 818.92 722.52 543.92 307.4 221.72 293.92 225 152.84 122.24 93.88 68.04 87.2 79.56 73.08 66.64 53.64 37.12 69.72 114.2 175.08 151.6 124.6 96.28 98.2 166.36 160.2 138.52 129.84 125.84 127.4 139.08 160.96 188.2 198.24 246.72 274.92 293.68 355.76 370.24 323.04 275.32 247.12 218.8 265.12 229.88 181.08 156.88 133.36 132.68 154.12 208.6 473.88 878.84 882.04 535.64 669.36 690.44 1002.88 1235.16 1370.72 1421.72 1538.68 1485.32 1154 989.64 899.48 1156.68 1196.52 1385.44 1214.88 890.12 859.52 1010.4 1314.8 1108.72 1209.28 1024.76 1026.96 1466.92 1498.56 1109.08 807 559.12 590.16 606.12 397.72 489.12 363 505.48 1089.96 1148.52 1197.2 1071.72 811.16 1011.44 1110.2 924.12 880.56 778.36 809.2 938.72 977.32 991.16 810.72 552.64 535.32 760.12 1223.72 1068.36 1299.6 999.52 674.28 612.96 509.36 835.96 981.16 1234.28 1261.48 1655.52 1301.84 1164.84 1042.68 681.24 501.44 571.8 857.52 1285.72 1384.84 1131.6 1025.96 912.64 823.96 632.28 546.84 440.04 416.08 433.68 462.24 444.72 402.64 389.32 396.64 544.28 427.76 503.96 547.56 411.16 357.24 354.96 540.52 392.56 367.92 433.76 592.16 640.56 478.08 514.88 609.36 549.28 714.52 881.28 980.56 767.36 628.76 595.8 601.64 584.76 649.88 779.48 954.12 960.44 657.28 610.88 482.44 515.8 954.52 1041.64 1015.12 943.44 993.76 854.56 1083.24 898.56 656 727.32 974.44 1056.16 933.4 769 639.52 642.08 855.96 657 563.76 470.2 765.76 851.8 878.84 831.64 732.56 501.04 559 545.92 553.56 648.16 581.44 532.6 750.08 1003.4 851.32 556.92 574 656.08 819.12 938.16 1119.92 1206.24 1096.32 1135.8 1140.88 1084.88 1248.32 1485.16 1082.84 915.24 758.76 910.32 1058.24 871.24 1248.16 1170.24 1302.04 1233.52 1252.52 1427.08 1345.96 1289.48 1239.4 1282.72 1262.96 1113.08 866 1008.12 881 753.28 849.76 865.8 791.68 877.4 1035.04 1114.68 845.92 503.36 463.44 566.08 534.6 848.6 937.24 817.64 389.8 365.72 362.6 318.56 155.88 87.72 241.64
600.96 615.2 602.48 669.96 643.56 643.72 634.44 604.36 603.2 591.28 550.72 538.08 515.04 522 540.92 515.72 442.8 396.12 382.36 409.32 351.56 322.68 312.84 274.68 263.88 254.32 244.12 251.36 250.64 266.4 230.44 216.48 224.56 334.28 253.4 215 200.04 237.6 198.16 192.2 215.36 221.52 229.4 214.12 223.16 216.8 251.6 348.2 318.56 364.4 334.72 477.68 461.4 483.2 665.04 679.28 662.24 597.84 586.64 728.08 707.12 705.32 729.16 723.52 724.96 789 750.64 702.84 722.08 305.8 296.44 149.32 130.84 252.32 339.16 143.32 169.36 212.96 249.76 199.52 152.16 145.44 341.68 252.12 214.4 125.6 77.68 197.56 221.76 184.44 75.24 81.08 82.84 80.92 131.12 101.56 123.24 154.76 72.6 18.4 20.92 23.56 24.92 19.16 19.24 18.04 14.2 8.84 7.4 6.24 5.88 6.28 5.08 4.28 4.76 4.8 4.88 2.48 0.24 0 0 0 0 0 0 0 0 0 0 0 0 0 0 0 0 0 0 0 0 0 0 0 0 0 0 0 0 0 0 0 0 0 0 0 0 0 0 0 0 0 0 0 0 0 0 0 0 0 0 0 0 0 0 0 0 0 0 0 0 0 0 0 0 0 0 0 0 0 0 0 0 0 0 0 0 0 0 0 0 0 0 0 0 0 0 0 0 0 0 0 0 0 0 0 0 0 0 0 0 0 0 0 0 0 0 0 0 0 0 0 0 0 0 0 0 0 0 0 0 0 0 0 0 0 0 0 0 0 0 0 0 0 0 0 0 0 0 0 0 0 0 0 0 0 0 0 0 0 0 0 0 1.4 0.44 0 18.88 6.52 3.72 3.44 3.4 3 3.64 4.4 14.04 53.6 8.44 12.84 62.92 210.04 174.28 91.28 227.48 223.84 283.68 272.4 231.48 114.16 135.76 151.24 235.76 178.6 351.92 570.64 866.8 1004.6 1119.36 1115.68 724.08 540.6 248 173.2 198.2 141.92 113.6 86.52 106.48 122.92 106.84 96.48 78.68 83.4 50.08 41.6 82.08 91.28 61.68 70.88 84.72 89.92 134.68 131.52 120.28 119.52 117.52 120.48 123.96 141.4 164.48 197.8 235.52 272.28 309.64 371.08 344.6 311.52 298.16 274.68 238.32 292.44 293.08 223.76 152.56 139.68 125.8 150.6 539.68 599.72 702.2 1130.6 736.48 473.96 471.08 891 1038 1258.44 1457.6 1540.12 1595.6 1200.12 948.96 859.2 960.28 1208.84 1220.16 1165.8 890.84 846.76 913.32 1162.52 1048.16 1037.08 987.16 1137 1506.52 1396.48 1139.72 801.24 555.4 832.44 479.16 527.96 498.52 441.92 539.88 745.4 746 984.64 912.32 860.08 1360.08 1311.52 1130.36 985.24 718.08 700.24 791.04 697.2 649.92 465.96 720.2 736.12 1270.64 1140.56 997 1271.6 1124.08 764.88 625.28 554.28 752 1068.6 1465.68 1701.32 1825.84 1268.8 1331.2 1033.92 720.6 607.56 704.04 845.28 975.76 819.28 884.24 869.6 791.44 742.88 570.6 597.76 697.36 492.52 455.28 441.96 405.12 393.36 405.4 421.72 438.64 492.36 518.6 426.96 389.64 355.12 423.2 602.92 376.64 456.6 523.84 577.96 638.36 524.24 463.36 447.36 499.2 609.8 685.12 775.2 801.28 803.56 727.68 756.68 822.92 757.16 972.8 1152.6 905.28 611.24 497.4 481.28 600.92 976.2 1044.24 979.76 959.92 1111.36 1100.68 928.92 873.2 709.24 730.76 915.72 1258.12 747.16 827.16 482.84 557.6 829.36 479.48 451.84 547.56 812.6 618.92 635.32 834.96 903.04 811.2 768.96 692.72 961.04 714.16 706.88 652.84 713.92 665.6 669.52 834.88 807.48 633.44 866 1218.88 1340.56 1088.04 990.4 981.04 911 911.76 1211.4 1391.28 1097.76 1052.16 1023.56 854.36 842.56 935.84 954.44 1097.68 1215.64 1204.36 1093.44 1253.36 1268.88 1198.8 1151.6 1191.36 1309.04 1077.96 847.08 1091.88 1028.6 1022.8 957.6 981.36 862.88 602.44 910.16 1082.8 911 699.32 698.24 593.92 520.24 748.76 832.28 790.88 651.68 636.8 790.08 590.44 286.24 86.92 149.76
671.08 638.6 630.44 651.44 632.28 629.96 640.56 626.92 630.48 632.88 589.76 569.96 542.56 572.72 589.76 564.28 480.4 433.68 439.64 382.16 361.4 368.24 384.64 326.88 271.72 258.08 267.08 262.68 293.28 235.28 239.8 227.88 316.28 379.44 262.52 215.08 208.44 207.68 209.12 203.72 232.4 238.84 277 233.28 246.32 257.48 394.24 408.92 413.2 465.6 411.08 462.96 445.04 473.84 630.04 729.52 737.72 659.24 588.56 772.2 779.76 831.56 768.56 677.6 731.84 839.08 822.16 724.2 586.16 184.44 157.64 172.52 206.36 156.56 182.56 159.24 191.2 202.56 191.6 168.72 144.24 176.24 247.4 181.52 158.16 108.2 109.64 227.32 149.64 120.24 95.96 86.04 77.84 65.32 85.08 72.4 97.76 112.76 57.6 17.4 21.8 25.96 28.32 18.48 16.88 15.88 11.8 8.24 7.56 5.76 4.6 3.96 2.84 1.56 1.24 1.2 1.52 0.72 0 0 0 0 0 0 0 0 0 0 0 0 0 0 0 0 0 0 0 0 0 0 0 0 0 0 0 0 0 0 0 0 0 0 0 0 0 0 0 0 0 0 0 0 0 0 0 0 0 0 0 0 0 0 0 0 0 0 0 0 0 0 0 0 0 0 0 0 0 0 0 0 0 0 0 0 0 0 0 0 0 0 0 0 0 0 0 0 0 0 0 0 0 0 0 0 0 0 0 0 0 0 0 0 0 0 0 0 0 0 0 0 0 0 0 0 0 0 0 0 0 0 0 0 0 0 0 0 0 0 0 0 0 0 0 0 0 0 0 0 0 0 0 0 0 0 0 0 0 0 0 0 0 0 5.24 13.36 20.48 23.76 5.32 2.68 2.88 2.52 3.04 3.76 2 25 30.56 16 27.08 62.48 159.92 100.8 197.08 283.48 198.72 203.88 264.32 124.96 192.28 248.4 210.56 280.2 345.44 406.8 613.4 988.88 939.52 923.96 558.84 465.56 269.12 172.64 138.12 184.92 124.48 108.44 136.12 150.68 149.24 120 104.44 96.76 81.28 44.12 41.64 48.08 74.36 87.04 123.36 104.88 89.96 111.32 113.12 112.12 114.44 114.36 120.44 134.96 149.6 195.96 273.64 342.36 372.24 390.68 314.88 284.68 283.92 263.4 242.16 276.76 345.24 274.32 165.96 137.08 128.2 240.24 463.72 959.84 928.92 1103.44 919.84 445.96 456.36 731.88 1011.92 1098.92 1384.64 1477.08 1561.44 1325.44 987.88 870.32 908.64 1177.12 1186.48 1246.64 919.04 842.24 903.24 986.68 955.2 927.36 866.8 1157.96 1392.56 1291.6 1052.92 654.16 548.52 660.76 367.88 500.84 463.84 721.36 780.48 849.56 947.2 775.32 893.52 1106.64 1570.32 1362.24 842.28 976.64 662.4 482.8 547.44 483 410.68 672.88 854.12 1169.72 1431.28 1135.16 969.72 1191.92 1371 830.6 570.96 514.96 786.8 1163.84 1343.48 1690.56 1840.96 1094.08 1010.44 781.6 652.6 603.72 627.08 562.68 548.88 721.48 791.36 824.2 927.56 828.92 789.44 884.04 728.32 428.92 411.84 398.64 389.04 409.72 437 428.32 444.64 565.48 450.4 386.76 367.16 357.4 566.36 589.4 384.76 650.08 555.68 687.72 862.28 547.08 485.92 415 453.72 582.88 662.24 730.28 877.88 898.68 1004.92 1045.68 932.8 901.48 1026.92 1171.88 717.52 505.32 511.36 632.76 753.88 970.24 1018.84 935.76 935.44 1347.36 1139.52 1063.64 780.2 660.16 670.28 820.96 628.04 600.6 566.8 641.64 503.76 547.36 323 609.44 517.44 549.28 577.8 821.92 990.4 1120.16 995.36 914.84 1051.68 984.2 804.64 977.36 921.84 882.68 755.28 918.76 831.68 701.32 807.44 956.08 1293.24 1326.6 1075.88 915.04 887.72 794.04 1083.68 1385.96 1286.96 1022.88 941.44 906.24 738.52 748.6 986.12 835.16 1024.76 1246.36 1187.96 1126.8 1065.32 1224.04 1302.8 1159.12 1080.52 1213.6 1404.96 1063.32 811.08 854.64 1046.44 1003.36 676.64 542.72 579.72 926.36 980.28 788.6 792.56 979.84 883.8 628.28 530.8 658.48 718.68 729.88 592.16 571.2 773.88 624.92 93.48 82.2
